# .PCD v.5 - Point Cloud Data file format
FIELDS x y z
SIZE 4 4 4
TYPE F F F
WIDTH 1693
HEIGHT 1
POINTS 1693
DATA ascii
0.00481419 -0.0168497 -1.23889
0.00722128 -0.0168497 -1.23889
0.00963323 -0.0168581 -1.23951
0.0120719 -0.0169006 -1.24264
0.0145433 -0.0169672 -1.24753
0.0170467 -0.0170467 -1.25338
0.0196332 -0.017179 -1.2631
0.022158 -0.017234 -1.26715
0.0247071 -0.017295 -1.27163
0.0272744 -0.0173564 -1.27615
0.0298861 -0.0174336 -1.28182
0.0325329 -0.0175177 -1.28801
0.0352053 -0.0176027 -1.29425
0.0379038 -0.0176884 -1.30056
-0.040464 -0.015174 -1.30163
-0.0377617 -0.0151047 -1.29568
-0.0350744 -0.0150319 -1.28944
-0.0324129 -0.0149598 -1.28326
-0.0298062 -0.0149031 -1.27839
-0.0272256 -0.0148503 -1.27386
-0.0246632 -0.0147979 -1.26937
-0.0221317 -0.0147545 -1.26564
-0.0196225 -0.0147169 -1.26242
-0.017038 -0.014604 -1.25273
-0.0145465 -0.0145465 -1.24781
-0.0120911 -0.0145093 -1.24461
-0.00965303 -0.0144795 -1.24206
-0.00722738 -0.0144548 -1.23993
-0.00481517 -0.0144455 -1.23914
-0.00240605 -0.0144363 -1.23835
0 -0.0144363 -1.23835
0.00240758 -0.0144455 -1.23914
0.00481826 -0.0144548 -1.23993
0.00723976 -0.0144795 -1.24206
0.00967283 -0.0145092 -1.24461
0.0121221 -0.0145465 -1.24781
0.0146041 -0.0146041 -1.25274
0.0171506 -0.0147005 -1.26101
0.0196507 -0.014738 -1.26423
0.0221636 -0.0147757 -1.26747
0.0247123 -0.0148274 -1.2719
0.0272801 -0.0148801 -1.27642
0.0298662 -0.0149331 -1.28097
0.0325014 -0.0150006 -1.28676
0.035171 -0.0150733 -1.29299
0.0378667 -0.0151467 -1.29929
-0.0404272 -0.0126335 -1.30045
-0.037725 -0.012575 -1.29443
-0.0350405 -0.0125145 -1.28819
-0.032412 -0.0124662 -1.28322
-0.0298124 -0.0124218 -1.27866
-0.0272312 -0.0123778 -1.27413
-0.0246758 -0.0123379 -1.27002
-0.0221515 -0.0123064 -1.26677
-0.01964 -0.012275 -1.26354
-0.0171472 -0.012248 -1.26077
-0.0146073 -0.0121728 -1.25302
-0.012141 -0.012141 -1.24975
-0.00969283 -0.012116 -1.24718
-0.00725701 -0.012095 -1.24502
-0.0048349 -0.0120872 -1.24422
-0.0024159 -0.0120795 -1.24342
0 -0.0120795 -1.24342
0.00241745 -0.0120872 -1.24422
0.004838 -0.012095 -1.24502
0.0072696 -0.012116 -1.24718
0.00971276 -0.0121409 -1.24974
0.0121728 -0.0121728 -1.25302
0.0146864 -0.0122387 -1.2598
0.0171658 -0.0122613 -1.26213
0.0196682 -0.0122927 -1.26536
0.0221835 -0.0123242 -1.2686
0.0247175 -0.0123588 -1.27217
0.0272859 -0.0124027 -1.27669
0.0298725 -0.0124469 -1.28124
0.0324777 -0.0124914 -1.28582
0.0351368 -0.0125489 -1.29173
0.0378297 -0.0126099 -1.29802
-0.0403904 -0.0100976 -1.29926
-0.0376885 -0.0100503 -1.29317
-0.0350376 -0.0100107 -1.28809
-0.0324188 -0.00997501 -1.28349
-0.0298186 -0.00993954 -1.27892
-0.0272376 -0.00990459 -1.27443
-0.0246979 -0.00987917 -1.27116
-0.0221713 -0.00985389 -1.2679
-0.0196575 -0.00982876 -1.26467
-0.0171695 -0.00981116 -1.26241
-0.0146912 -0.00979411 -1.26021
-0.0122233 -0.00977861 -1.25822
-0.00973293 -0.00973293 -1.25234
-0.00728688 -0.00971584 -1.25014
-0.00485479 -0.00970957 -1.24933
-0.00242583 -0.00970332 -1.24853
0 -0.00970331 -1.24853
0.00242739 -0.00970957 -1.24933
0.00485792 -0.00971584 -1.25014
0.00729969 -0.00973293 -1.25234
0.00977428 -0.00977428 -1.25766
0.0122333 -0.00978663 -1.25925
0.0147055 -0.00980364 -1.26144
0.0171863 -0.00982073 -1.26364
0.0196858 -0.0098429 -1.26649
0.0222034 -0.00986816 -1.26974
0.0247338 -0.00989354 -1.27301
0.0272917 -0.00992424 -1.27696
0.0298788 -0.00995961 -1.28151
0.0324846 -0.00999525 -1.28609
0.035109 -0.0100312 -1.29071
0.0377927 -0.0100781 -1.29675
-0.0403537 -0.00756633 -1.29808
-0.0376831 -0.00753663 -1.29299
-0.0350449 -0.00750963 -1.28836
-0.0324255 -0.00748282 -1.28376
-0.0298248 -0.00745621 -1.27919
-0.0272621 -0.00743511 -1.27557
-0.0247201 -0.00741602 -1.2723
-0.0221911 -0.00739703 -1.26904
-0.0196821 -0.00738077 -1.26625
-0.0171918 -0.00736793 -1.26405
-0.0147102 -0.00735512 -1.26185
-0.012242 -0.0073452 -1.26015
-0.00978375 -0.00733781 -1.25888
-0.00733043 -0.00733043 -1.25761
-0.00488485 -0.00732728 -1.25707
-0.00244162 -0.00732485 -1.25666
0 -0.00732377 -1.25647
0.00244207 -0.0073262 -1.25689
0.00488575 -0.00732863 -1.2573
0.00733455 -0.00733455 -1.25832
0.00978927 -0.00734195 -1.25959
0.0122492 -0.0073495 -1.26089
0.0147246 -0.00736229 -1.26308
0.0172086 -0.00737513 -1.26528
0.0197034 -0.00738876 -1.26762
0.0222233 -0.00740775 -1.27088
0.0247561 -0.00742683 -1.27415
0.027302 -0.00744599 -1.27744
0.0298852 -0.0074713 -1.28178
0.0324915 -0.00749804 -1.28637
0.0351165 -0.00752497 -1.29099
0.0377605 -0.00755209 -1.29564
-0.0403172 -0.00503964 -1.29691
-0.037691 -0.00502547 -1.29326
-0.0350523 -0.00500747 -1.28863
-0.0324323 -0.00498959 -1.28402
-0.0298441 -0.00497402 -1.28002
-0.0272866 -0.0049612 -1.27672
-0.0247422 -0.00494844 -1.27344
-0.0222109 -0.00493577 -1.27017
-0.0197077 -0.00492694 -1.2679
-0.0172142 -0.00491835 -1.26569
-0.0147294 -0.00490978 -1.26349
-0.0122608 -0.00490432 -1.26208
-0.00979875 -0.00489937 -1.26081
-0.00734173 -0.00489448 -1.25955
-0.00489286 -0.00489286 -1.25913
-0.00244562 -0.00489124 -1.25872
0 -0.00489051 -1.25853
0.00244607 -0.00489214 -1.25895
0.00489376 -0.00489376 -1.25937
0.0073458 -0.0048972 -1.26025
0.0098043 -0.00490215 -1.26152
0.0122678 -0.00490711 -1.2628
0.0147438 -0.00491458 -1.26472
0.0172311 -0.00492316 -1.26693
0.0197271 -0.00493178 -1.26915
0.0222431 -0.00494292 -1.27201
0.0247783 -0.00495567 -1.2753
0.0273266 -0.00496848 -1.27859
0.0298915 -0.00498192 -1.28205
0.0324984 -0.00499976 -1.28664
0.035124 -0.00501772 -1.29126
0.0377686 -0.00503581 -1.29592
-0.0403497 -0.00252186 -1.29795
-0.037699 -0.00251327 -1.29353
-0.0350596 -0.00250426 -1.2889
-0.0324442 -0.00249571 -1.28449
-0.029871 -0.00248925 -1.28117
-0.0273111 -0.00248283 -1.27787
-0.0247644 -0.00247644 -1.27458
-0.022239 -0.002471 -1.27178
-0.0197335 -0.00246668 -1.26956
-0.0172367 -0.00246238 -1.26734
-0.0147505 -0.00245842 -1.2653
-0.0122797 -0.00245593 -1.26402
-0.0098138 -0.00245345 -1.26275
-0.00735379 -0.00245126 -1.26162
-0.0049009 -0.00245045 -1.2612
-0.00244963 -0.00244963 -1.26078
0 -0.00244927 -1.2606
0.00245009 -0.00245009 -1.26101
0.0049018 -0.0024509 -1.26143
0.00735708 -0.00245236 -1.26218
0.00981938 -0.00245484 -1.26346
0.0122867 -0.00245733 -1.26474
0.014763 -0.0024605 -1.26637
0.0172536 -0.0024648 -1.26859
0.0197529 -0.00246911 -1.27081
0.0222631 -0.00247367 -1.27315
0.0248006 -0.00248006 -1.27644
0.0273513 -0.00248648 -1.27974
0.0299151 -0.00249293 -1.28306
0.0325054 -0.00250041 -1.28692
0.0351316 -0.0025094 -1.29154
-0.0405726 0 -1.30512
-0.0377069 0 -1.2938
-0.0350669 0 -1.28917
-0.0324735 0 -1.28566
-0.029898 0 -1.28233
-0.0273357 0 -1.27902
-0.0247867 0 -1.27572
-0.0222682 0 -1.27345
-0.0197593 0 -1.27122
-0.0172591 0 -1.269
-0.0147733 0 -1.26725
-0.0122986 0 -1.26597
-0.00982891 0 -1.26469
-0.00736589 0 -1.2637
-0.00490896 0 -1.26328
-0.00245366 0 -1.26286
0 0 -1.26267
0.00245412 0 -1.26309
0.00490987 0 -1.26351
0.0073684 0 -1.26413
0.0098345 0 -1.26541
0.0123056 0 -1.26669
0.0147823 0 -1.26803
0.0172761 0 -1.27025
0.0197788 0 -1.27247
0.0222902 0 -1.27471
0.0248229 0 -1.27759
0.0273759 0 -1.2809
0.0299422 0 -1.28422
0.0325218 0 -1.28757
0.0351391 0 -1.29182
-0.0407978 0.00254987 -1.31237
-0.0376947 0.00251298 -1.29339
-0.0350943 0.00250674 -1.29017
-0.0325029 0.00250023 -1.28682
-0.029925 0.00249375 -1.28349
-0.0273603 0.0024873 -1.28017
-0.0248184 0.00248184 -1.27736
-0.0222974 0.00247748 -1.27512
-0.0197852 0.00247315 -1.27288
-0.0172817 0.00246882 -1.27065
-0.0147961 0.00246601 -1.26921
-0.0123175 0.00246351 -1.26792
-0.00984405 0.00246101 -1.26664
-0.00737803 0.00245934 -1.26578
-0.00491705 0.00245853 -1.26536
-0.00245771 0.00245771 -1.26494
0 0.00245734 -1.26475
0.00245816 0.00245816 -1.26517
0.00491796 0.00245898 -1.26559
0.00737975 0.00245992 -1.26607
0.00984966 0.00246242 -1.26736
0.0123246 0.00246492 -1.26865
0.0148046 0.00246743 -1.26994
0.0172988 0.00247126 -1.27191
0.0198047 0.00247559 -1.27414
0.0223195 0.00247994 -1.27638
0.0248452 0.00248452 -1.27874
0.0274006 0.00249097 -1.28205
0.0299693 0.00249744 -1.28539
0.0325513 0.00250395 -1.28874
0.0351469 0.00251049 -1.2921
-0.0410255 0.00512819 -1.31969
-0.0377446 0.00503261 -1.2951
-0.0351262 0.00501803 -1.29135
-0.0325324 0.00500498 -1.28799
-0.029952 0.004992 -1.28465
-0.027385 0.0049791 -1.28132
-0.0248511 0.00497021 -1.27904
-0.0223267 0.00496148 -1.27679
-0.0198111 0.00495278 -1.27455
-0.0173064 0.00494469 -1.27247
-0.0148189 0.00493965 -1.27117
-0.0123366 0.00493463 -1.26988
-0.00985924 0.00492962 -1.26859
-0.00739021 0.00492681 -1.26787
-0.00492517 0.00492517 -1.26745
-0.00246176 0.00492352 -1.26702
0 0.0049228 -1.26684
0.00246222 0.00492444 -1.26726
0.00492608 0.00492608 -1.26768
0.00739159 0.00492773 -1.26811
0.00986488 0.00493244 -1.26932
0.0123437 0.00493746 -1.27061
0.0148275 0.0049425 -1.27191
0.0173215 0.004949 -1.27358
0.0198308 0.00495769 -1.27582
0.0223489 0.00496641 -1.27806
0.0248759 0.00497517 -1.28032
0.0274254 0.00498643 -1.28321
0.0299964 0.0049994 -1.28655
0.0325809 0.00501244 -1.28991
0.03547 0.00506714 -1.30398
-0.0412555 0.00773541 -1.32709
-0.0379229 0.00758459 -1.30122
-0.0351182 0.00752534 -1.29105
-0.0325619 0.00751429 -1.28916
-0.0299791 0.00749478 -1.28581
-0.0274205 0.00747832 -1.28298
-0.0248838 0.00746514 -1.28072
-0.022356 0.00745201 -1.27847
-0.0198371 0.00743892 -1.27622
-0.0173332 0.00742852 -1.27444
-0.0148419 0.00742095 -1.27314
-0.0123557 0.00741339 -1.27185
-0.00987448 0.00740586 -1.27055
-0.00740243 0.00740243 -1.26997
-0.00493331 0.00739996 -1.26954
-0.00246583 0.00739749 -1.26912
0 0.0073964 -1.26893
0.00246629 0.00739887 -1.26935
0.00493423 0.00740134 -1.26978
0.00740382 0.00740382 -1.2702
0.00988013 0.0074101 -1.27128
0.0123628 0.00741766 -1.27258
0.0148505 0.00742524 -1.27388
0.0173442 0.00743324 -1.27525
0.0198569 0.00744632 -1.27749
0.0223783 0.00745944 -1.27975
0.0249087 0.00747261 -1.28201
0.0274502 0.00748641 -1.28437
0.0300236 0.0075059 -1.28772
0.032715 0.00754961 -1.29522
0.035665 0.0076425 -1.31115
-0.038103 0.0101608 -1.3074
-0.0352754 0.0100787 -1.29683
-0.0325804 0.0100247 -1.28989
-0.0300063 0.0100021 -1.28697
-0.0274567 0.00998427 -1.28468
-0.0249166 0.00996665 -1.28241
-0.0223855 0.0099491 -1.28015
-0.0198632 0.00993159 -1.2779
-0.0173601 0.00992008 -1.27642
-0.0148649 0.00990995 -1.27512
-0.0123748 0.00989984 -1.27382
-0.00988976 0.00988976 -1.27252
-0.0074147 0.00988626 -1.27207
-0.00494148 0.00988295 -1.27164
-0.00246991 0.00987965 -1.27122
0 0.0098782 -1.27103
0.00247037 0.0098815 -1.27146
0.0049424 0.00988481 -1.27188
0.00741609 0.00988812 -1.27231
0.00989544 0.00989544 -1.27325
0.0123819 0.00990556 -1.27455
0.0148735 0.00991569 -1.27586
0.0173702 0.00992584 -1.27716
0.019883 0.00994151 -1.27918
0.0224079 0.00995905 -1.28144
0.0249416 0.00997666 -1.2837
0.0274844 0.00999432 -1.28597
0.0300508 0.0100169 -1.28888
0.0328691 0.0101136 -1.30132
0.0358621 0.0102463 -1.3184
-0.0382988 0.0127663 -1.31411
-0.0354424 0.012658 -1.30297
-0.0326458 0.0125561 -1.29247
-0.0300456 0.012519 -1.28866
-0.0274931 0.0124969 -1.28638
-0.0249495 0.0124748 -1.28411
-0.022415 0.0124528 -1.28184
-0.0198914 0.0124321 -1.27972
-0.0173871 0.0124194 -1.27841
-0.014888 0.0124067 -1.2771
-0.012394 0.012394 -1.27579
-0.00990599 0.0123825 -1.27461
-0.007427 0.0123783 -1.27418
-0.00494967 0.0123742 -1.27375
-0.00247401 0.01237 -1.27333
0 0.0123682 -1.27314
0.00247447 0.0123724 -1.27357
0.00495061 0.0123765 -1.27399
0.0074284 0.0123807 -1.27442
0.0099108 0.0123885 -1.27523
0.0124012 0.0124012 -1.27653
0.0148967 0.0124139 -1.27784
0.0173973 0.0124266 -1.27915
0.0199092 0.0124433 -1.28087
0.0224375 0.0124653 -1.28313
0.0249747 0.0124873 -1.2854
0.0275208 0.0125095 -1.28768
0.0302386 0.0125994 -1.29694
0.0330246 0.0127018 -1.30748
0.0360614 0.0128791 -1.32573
-0.0385129 0.0154052 -1.32146
-0.0356109 0.0152618 -1.30916
-0.0327997 0.0151383 -1.29857
-0.0301149 0.0150575 -1.29163
-0.0275184 0.01501 -1.28756
-0.0249826 0.0149895 -1.28581
-0.0224446 0.0149631 -1.28354
-0.0199224 0.0149418 -1.28171
-0.0174142 0.0149265 -1.2804
-0.0149112 0.0149112 -1.27909
-0.0124133 0.0148959 -1.27778
-0.00992246 0.0148837 -1.27673
-0.00743934 0.0148787 -1.2763
-0.0049579 0.0148737 -1.27587
-0.00247812 0.0148687 -1.27544
0 0.0148665 -1.27525
0.00247859 0.0148715 -1.27568
0.00495883 0.0148765 -1.27611
0.00744075 0.0148815 -1.27654
0.0099262 0.0148893 -1.27721
0.0124205 0.0149046 -1.27852
0.0149199 0.0149199 -1.27983
0.0174244 0.0149352 -1.28114
0.0199356 0.0149517 -1.28256
0.0224672 0.0149781 -1.28483
0.0250078 0.0150047 -1.2871
0.0276562 0.0150852 -1.29401
0.0303813 0.0151906 -1.30306
0.0331817 0.0153146 -1.31369
0.036263 0.0155413 -1.33313
-0.0387294 0.0180737 -1.32889
-0.035781 0.0178905 -1.31541
-0.0329551 0.0177451 -1.30472
-0.0302509 0.0176464 -1.29747
-0.0276108 0.0175705 -1.29189
-0.0249942 0.0174959 -1.2864
-0.0224743 0.01748 -1.28523
-0.0199535 0.0174593 -1.28371
-0.0174414 0.0174414 -1.2824
-0.0149344 0.0174235 -1.28108
-0.0124326 0.0174056 -1.27977
-0.00993898 0.0173932 -1.27885
-0.00745173 0.0173874 -1.27842
-0.00496615 0.0173815 -1.27799
-0.00248224 0.0173757 -1.27756
0 0.0173732 -1.27738
0.00248271 0.017379 -1.27781
0.00496709 0.0173848 -1.27824
0.00745314 0.0173907 -1.27867
0.00994165 0.0173979 -1.2792
0.0124398 0.0174157 -1.28051
0.0149431 0.0174337 -1.28183
0.0174516 0.0174516 -1.28314
0.0199652 0.0174696 -1.28447
0.0225353 0.0175275 -1.28872
0.0251469 0.0176028 -1.29427
0.0277811 0.0176789 -1.29986
0.0305252 0.0178064 -1.30923
0.0333402 0.0179524 -1.31997
0.0364668 0.0182334 -1.34063
-0.0389485 0.0207725 -1.3364
-0.0359527 0.0205444 -1.32173
-0.033112 0.0203766 -1.31093
-0.0303881 0.0202587 -1.30335
-0.0277354 0.0201712 -1.29772
-0.0251056 0.0200845 -1.29214
-0.0225147 0.0200131 -1.28754
-0.0199774 0.0199774 -1.28525
-0.0174686 0.0199642 -1.2844
-0.0149577 0.0199436 -1.28308
-0.012452 0.0199232 -1.28176
-0.00995556 0.0199111 -1.28099
-0.00746416 0.0199044 -1.28056
-0.00497443 0.0198977 -1.28012
-0.00248638 0.019891 -1.27969
0 0.0198881 -1.27951
0.00248685 0.0198948 -1.27994
0.00497538 0.0199015 -1.28037
0.00746558 0.0199082 -1.2808
0.00995746 0.0199149 -1.28123
0.0124592 0.0199348 -1.28251
0.0149665 0.0199553 -1.28383
0.0174789 0.0199759 -1.28515
0.0200353 0.0200353 -1.28897
0.0226366 0.0201214 -1.29452
0.0252605 0.0202084 -1.30011
0.027907 0.020296 -1.30575
0.0306706 0.0204471 -1.31547
0.0335003 0.0206155 -1.32631
0.0366729 0.0209559 -1.3482
-0.0391699 0.023502 -1.344
-0.0361261 0.0232239 -1.3281
-0.0332704 0.0230333 -1.3172
-0.0305265 0.0228949 -1.30929
-0.0278613 0.0227956 -1.30361
-0.025219 0.0226971 -1.29798
-0.0226142 0.0226142 -1.29324
-0.0200569 0.022564 -1.29036
-0.0175108 0.0225139 -1.2875
-0.0149761 0.0224641 -1.28465
-0.0124714 0.0224486 -1.28376
-0.0099722 0.0224375 -1.28313
-0.00747663 0.0224299 -1.28269
-0.00498274 0.0224223 -1.28226
-0.00249053 0.0224147 -1.28183
0 0.0224115 -1.28164
0.002491 0.022419 -1.28207
0.00498369 0.0224266 -1.28251
0.00747806 0.0224342 -1.28294
0.0099741 0.0224417 -1.28337
0.012492 0.0224856 -1.28588
0.0150236 0.0225354 -1.28873
0.0175665 0.0225855 -1.29159
0.0201254 0.022641 -1.29477
0.0227389 0.0227389 -1.30036
0.025375 0.0228375 -1.30601
0.0280342 0.0229371 -1.3117
0.0308173 0.023113 -1.32176
0.0336619 0.0233044 -1.3327
0.0368813 0.0237094 -1.35587
-0.0393939 0.0262626 -1.35169
-0.0363012 0.0259294 -1.33454
-0.0334303 0.0257156 -1.32353
-0.0306662 0.0255552 -1.31528
-0.0279882 0.0254438 -1.30955
-0.0253334 0.0253334 -1.30387
-0.0227146 0.0252385 -1.29898
-0.0201457 0.0251821 -1.29608
-0.0175882 0.025126 -1.29319
-0.0150421 0.0250702 -1.29032
-0.0125115 0.0250229 -1.28788
-0.0100022 0.0250056 -1.28699
-0.0074965 0.0249883 -1.2861
-0.00499421 0.0249711 -1.28521
-0.00249538 0.0249538 -1.28433
0 0.0249612 -1.28471
0.00249785 0.0249785 -1.2856
0.00499916 0.0249958 -1.28649
0.00750393 0.0250131 -1.28738
0.0100154 0.0250386 -1.28869
0.0125471 0.0250942 -1.29155
0.01509 0.02515 -1.29443
0.0176443 0.0252061 -1.29731
0.0202163 0.0252704 -1.30062
0.022842 0.02538 -1.30626
0.0254907 0.0254907 -1.31196
0.0281625 0.0256023 -1.3177
0.0309655 0.0258046 -1.32811
0.0338251 0.0260193 -1.33916
0.0370922 0.0264944 -1.36362
-0.0396205 0.0290551 -1.35946
-0.036478 0.0286613 -1.34104
-0.0335917 0.0284238 -1.32993
-0.0308072 0.02824 -1.32133
-0.0281163 0.0281163 -1.31554
-0.0254489 0.0279938 -1.30981
-0.022816 0.0278862 -1.30477
-0.0202354 0.0278236 -1.30185
-0.0176663 0.0277614 -1.29893
-0.0151088 0.0276994 -1.29603
-0.0125664 0.0276461 -1.29354
-0.0100461 0.0276268 -1.29264
-0.00752936 0.0276076 -1.29174
-0.00501609 0.0275885 -1.29084
-0.0025063 0.0275693 -1.28995
0 0.0275775 -1.29033
0.00250879 0.0275967 -1.29123
0.00502107 0.0276159 -1.29213
0.00753684 0.0276351 -1.29303
0.0100597 0.0276642 -1.29439
0.0126027 0.0277259 -1.29727
0.015157 0.0277879 -1.30017
0.0177228 0.0278501 -1.30309
0.020308 0.0279235 -1.30652
0.0229461 0.0280453 -1.31222
0.0256073 0.0281681 -1.31796
0.028292 0.028292 -1.32376
0.0311151 0.0285221 -1.33453
0.0339898 0.0287606 -1.34569
0.0373055 0.0293114 -1.37146
-0.0398496 0.0318797 -1.36732
-0.0366566 0.03142 -1.34761
-0.0337548 0.0311582 -1.33638
-0.0309495 0.0309495 -1.32743
-0.0282456 0.0308134 -1.32159
-0.0255654 0.0306785 -1.3158
-0.0229182 0.0305576 -1.31062
-0.0203258 0.0304887 -1.30766
-0.0177451 0.0304202 -1.30473
-0.015176 0.030352 -1.3018
-0.0126218 0.0302923 -1.29924
-0.0100904 0.0302712 -1.29833
-0.00756251 0.03025 -1.29743
-0.00503816 0.030229 -1.29652
-0.00251733 0.0302079 -1.29562
0 0.0302169 -1.29601
0.00251983 0.030238 -1.29691
0.00504318 0.0302591 -1.29782
0.00757006 0.0302802 -1.29872
0.0101044 0.0303131 -1.30013
0.0126588 0.030381 -1.30305
0.0152246 0.0304492 -1.30597
0.017802 0.0305178 -1.30891
0.0204006 0.0306009 -1.31248
0.0230512 0.0307349 -1.31822
0.0257251 0.0308701 -1.32402
0.0284236 0.0310076 -1.32992
0.0312661 0.0312661 -1.34101
0.0341562 0.0315288 -1.35227
0.0375212 0.032161 -1.37939
-0.0400812 0.034737 -1.37527
-0.0368369 0.0342057 -1.35424
-0.0339194 0.0339194 -1.3429
-0.0310931 0.0336842 -1.33359
-0.0283761 0.0335354 -1.3277
-0.025683 0.0333879 -1.32186
-0.0230213 0.033253 -1.31652
-0.0204171 0.0331777 -1.31354
-0.0178246 0.0331028 -1.31057
-0.0152438 0.0330283 -1.30762
-0.0126777 0.032962 -1.305
-0.010135 0.0329389 -1.30408
-0.00759596 0.0329158 -1.30317
-0.00506042 0.0328928 -1.30225
-0.00252844 0.0328697 -1.30134
0 0.0328795 -1.30173
0.00253097 0.0329026 -1.30264
0.00506548 0.0329257 -1.30356
0.00760356 0.0329488 -1.30447
0.0101494 0.0329856 -1.30593
0.0127153 0.0330599 -1.30887
0.0152928 0.0331344 -1.31182
0.017882 0.0332094 -1.31479
0.020494 0.0333028 -1.31849
0.0231572 0.0334493 -1.32429
0.0258439 0.0335971 -1.33014
0.0285611 0.033754 -1.33635
0.0314186 0.0340368 -1.34755
0.0343242 0.0343242 -1.35893
-0.037019 0.037019 -1.36093
-0.0340856 0.0367076 -1.34948
-0.0312381 0.0364444 -1.33981
-0.0285078 0.0362827 -1.33386
-0.0258017 0.0361224 -1.32797
-0.0231254 0.0359728 -1.32247
-0.0205091 0.035891 -1.31946
-0.0179048 0.0358096 -1.31647
-0.0153122 0.0357286 -1.31349
-0.0127341 0.0356555 -1.3108
-0.0101801 0.0356303 -1.30988
-0.0076297 0.0356053 -1.30896
-0.00508289 0.0355802 -1.30803
-0.00253966 0.0355552 -1.30712
0 0.0355658 -1.3075
0.0025422 0.0355908 -1.30843
0.00508799 0.0356159 -1.30935
0.00763736 0.035641 -1.31027
0.0101949 0.0356821 -1.31178
0.0127724 0.0357628 -1.31475
0.0153616 0.0358438 -1.31773
0.0179626 0.0359252 -1.32072
0.0205883 0.0360295 -1.32455
0.0232642 0.0361887 -1.33041
0.0259639 0.0363494 -1.33631
0.0286999 0.0365271 -1.34285
0.0315726 0.0368347 -1.35415
0.0344939 0.0371473 -1.36564
-0.037203 0.0398604 -1.36769
-0.0342535 0.0395232 -1.35613
-0.0313844 0.0392305 -1.34608
-0.0286408 0.0390556 -1.34008
-0.0259215 0.0388822 -1.33413
-0.0232304 0.0387173 -1.32847
-0.0206021 0.0386289 -1.32544
-0.0179857 0.0385409 -1.32242
-0.0153813 0.0384533 -1.31941
-0.012791 0.038373 -1.31666
-0.0102256 0.0383458 -1.31573
-0.00766374 0.0383187 -1.3148
-0.00510555 0.0382917 -1.31387
-0.00255097 0.0382646 -1.31294
0 0.038276 -1.31333
0.00255354 0.0383031 -1.31426
0.00511069 0.0383302 -1.31519
0.00767146 0.0383573 -1.31612
0.0102408 0.0384029 -1.31768
0.01283 0.0384901 -1.32068
0.0154311 0.0385777 -1.32368
0.018044 0.0386657 -1.3267
0.0206835 0.0387815 -1.33067
0.0233722 0.0389536 -1.33658
0.0260849 0.0391274 -1.34254
0.02884 0.0393273 -1.3494
0.0317281 0.0396602 -1.36082
0.0346887 0.0400254 -1.37336
-0.0373888 0.04273 -1.37452
-0.034423 0.0423668 -1.36284
-0.0315321 0.0420427 -1.35241
-0.0287749 0.0418545 -1.34636
-0.0260424 0.0416678 -1.34035
-0.0233364 0.0414869 -1.33453
-0.0206958 0.0413917 -1.33147
-0.0180674 0.0412969 -1.32842
-0.015451 0.0412027 -1.32539
-0.0128484 0.0411149 -1.32257
-0.0102714 0.0410857 -1.32163
-0.00769809 0.0410565 -1.32069
-0.00512842 0.0410274 -1.31975
-0.00256239 0.0409983 -1.31882
0 0.0410105 -1.31921
0.00256498 0.0410396 -1.32015
0.0051336 0.0410688 -1.32108
0.00770588 0.041098 -1.32202
0.0102871 0.0411482 -1.32364
0.0128882 0.0412421 -1.32666
0.0155012 0.0413364 -1.32969
0.0181261 0.0414311 -1.33274
0.0207795 0.041559 -1.33685
0.0234812 0.0417443 -1.34281
0.0262071 0.0419314 -1.34883
0.0289816 0.042155 -1.35603
0.0318852 0.0425136 -1.36756
-0.0345942 0.0452386 -1.36962
-0.0316811 0.0448816 -1.35881
-0.0289104 0.0446797 -1.35269
-0.0261644 0.0444795 -1.34663
-0.0234433 0.0442818 -1.34065
-0.0207905 0.0441797 -1.33756
-0.0181498 0.0440781 -1.33448
-0.0155213 0.043977 -1.33142
-0.0129063 0.0438816 -1.32853
-0.0103177 0.0438502 -1.32758
-0.00773275 0.0438189 -1.32663
-0.00515149 0.0437877 -1.32569
-0.00257391 0.0437565 -1.32475
0 0.0437695 -1.32514
0.00257652 0.0438008 -1.32609
0.00515671 0.0438321 -1.32703
0.00774059 0.0438633 -1.32798
0.0103338 0.0439185 -1.32965
0.0129468 0.0440192 -1.3327
0.0155719 0.0441203 -1.33576
0.018209 0.0442219 -1.33883
0.0208764 0.0443624 -1.34309
0.0235912 0.0445612 -1.34911
0.0263305 0.0447618 -1.35518
0.0291245 0.0450106 -1.36271
0.0320438 0.0453954 -1.37436
-0.0347672 0.0481392 -1.37646
-0.0318316 0.0477474 -1.36526
-0.0290471 0.0475316 -1.35909
-0.0262876 0.0473177 -1.35297
-0.0235528 0.0471055 -1.34691
-0.020886 0.0469934 -1.3437
-0.018233 0.0468848 -1.3406
-0.0155923 0.0467768 -1.33751
-0.0129648 0.0466733 -1.33455
-0.0103644 0.0466398 -1.33359
-0.00776773 0.0466064 -1.33264
-0.00517477 0.046573 -1.33168
-0.00258554 0.0465396 -1.33073
0 0.0465535 -1.33112
0.00258816 0.0465869 -1.33208
0.00518003 0.0466203 -1.33303
0.00777563 0.0466538 -1.33399
0.0103809 0.046714 -1.33571
0.013006 0.0468216 -1.33879
0.0156432 0.0469297 -1.34188
0.0182926 0.0470382 -1.34498
0.0209743 0.0471921 -1.34938
0.0237023 0.0474045 -1.35546
0.026455 0.047619 -1.36159
0.0292689 0.0478945 -1.36947
-0.0319836 0.0506406 -1.37178
-0.0291851 0.0504106 -1.36555
-0.0264119 0.0501827 -1.35937
-0.0236637 0.0499567 -1.35325
-0.0209823 0.049833 -1.3499
-0.0183169 0.0497174 -1.34677
-0.0156639 0.0496023 -1.34365
-0.0130238 0.0494904 -1.34062
-0.0104115 0.0494547 -1.33965
-0.00780301 0.0494191 -1.33869
-0.00519827 0.0493836 -1.33773
-0.00259726 0.049348 -1.33676
0 0.0493627 -1.33716
0.00259991 0.0493983 -1.33813
0.00520357 0.0494339 -1.33909
0.00781098 0.0494695 -1.34006
0.0104285 0.0495352 -1.34183
0.0130657 0.0496498 -1.34494
0.0157152 0.0497649 -1.34806
0.018377 0.0498805 -1.35119
0.021073 0.0500485 -1.35574
0.0238144 0.0502748 -1.36187
0.0265807 0.0505033 -1.36806
0.0294147 0.0508072 -1.37629
-0.0321384 0.053564 -1.37842
-0.0293244 0.0533171 -1.37207
-0.0265375 0.0530749 -1.36583
-0.0237756 0.0528348 -1.35965
-0.0210796 0.052699 -1.35616
-0.0184016 0.0525761 -1.353
-0.0157362 0.0524538 -1.34985
-0.0130833 0.0523333 -1.34675
-0.0104591 0.0522953 -1.34577
-0.00783863 0.0522575 -1.3448
-0.00522198 0.0522198 -1.34383
-0.0026091 0.052182 -1.34286
0 0.0521975 -1.34326
0.00261177 0.0522353 -1.34423
0.00522731 0.0522731 -1.3452
0.00784665 0.052311 -1.34618
0.0104765 0.0523823 -1.34801
0.013126 0.0525041 -1.35114
0.0157879 0.0526264 -1.35429
0.0184622 0.0527492 -1.35745
0.0211727 0.0529318 -1.36215
0.0239276 0.0531724 -1.36834
0.0267076 0.0534151 -1.37459
-0.0294651 0.0562515 -1.37865
-0.0266642 0.0559947 -1.37236
-0.0238887 0.0557402 -1.36612
-0.0211778 0.0555917 -1.36248
-0.0184871 0.0554614 -1.35929
-0.0158091 0.0553319 -1.35611
-0.0131435 0.0552029 -1.35295
-0.0105071 0.0551621 -1.35195
-0.00787457 0.055122 -1.35097
-0.0052459 0.0550819 -1.34998
-0.00262105 0.055042 -1.349
0 0.0550583 -1.34941
0.00262373 0.0550984 -1.35039
0.00525128 0.0551385 -1.35137
0.00788266 0.0551786 -1.35235
0.0105249 0.0552558 -1.35425
0.0131869 0.0553848 -1.35741
0.0158613 0.0555144 -1.36058
0.0185482 0.0556446 -1.36377
0.0212734 0.0558426 -1.36863
0.0240418 0.0560976 -1.37488
-0.0267921 0.0589426 -1.37894
-0.0240028 0.0586734 -1.37264
-0.0212769 0.0585114 -1.36885
-0.0185735 0.0583737 -1.36563
-0.0158827 0.0582366 -1.36242
-0.0132046 0.0581003 -1.35923
-0.0105555 0.0580552 -1.35818
-0.00791084 0.0580128 -1.35719
-0.00527004 0.0579705 -1.3562
-0.0026331 0.0579282 -1.35521
0 0.0579454 -1.35561
0.00263581 0.0579878 -1.3566
0.00527547 0.0580302 -1.35759
0.00791899 0.0580726 -1.35859
0.0105738 0.058156 -1.36054
0.0132483 0.0582924 -1.36373
0.0159353 0.0584295 -1.36693
0.018635 0.0585672 -1.37016
0.021375 0.0587812 -1.37516
-0.024118 0.0616348 -1.37923
-0.0213769 0.0614586 -1.37529
-0.0186606 0.0613133 -1.37204
-0.015957 0.0611686 -1.3688
-0.0132662 0.0610247 -1.36558
-0.0106044 0.0609751 -1.36447
-0.00794744 0.0609304 -1.36347
-0.00529441 0.0608857 -1.36247
-0.00264527 0.0608411 -1.36147
0 0.0608592 -1.36188
0.002648 0.0609039 -1.36288
0.00529988 0.0609486 -1.36388
0.00795566 0.0609934 -1.36488
0.0106232 0.0610832 -1.36689
0.0133103 0.0612272 -1.37011
0.01601 0.0613718 -1.37335
0.0187226 0.0615171 -1.3766
-0.0187485 0.0642805 -1.3785
-0.016032 0.0641282 -1.37523
-0.0133285 0.0639766 -1.37198
-0.0106537 0.0639222 -1.37082
-0.00798439 0.0638751 -1.36981
-0.00531901 0.0638281 -1.3688
-0.00265755 0.0637811 -1.36779
0 0.0638 -1.3682
0.0026603 0.0638471 -1.36921
0.00532452 0.0638942 -1.37022
0.00799267 0.0639414 -1.37123
0.010673 0.0640379 -1.3733
0.0133728 0.0641896 -1.37655
0.0160855 0.064342 -1.37982
-0.0133913 0.0669563 -1.37845
-0.0107035 0.0668969 -1.37722
-0.00802168 0.0668473 -1.3762
-0.00534383 0.0667979 -1.37519
-0.00266994 0.0667485 -1.37417
0 0.0667683 -1.37458
0.00267271 0.0668178 -1.3756
0.00534939 0.0668673 -1.37662
0.00803003 0.066917 -1.37764
0.0107233 0.0670205 -1.37977
-0.399248 0.152733 -1.3791
-0.396569 0.152733 -1.3791
-0.393889 0.152733 -1.3791
-0.39121 0.152733 -1.3791
-0.38853 0.152733 -1.3791
-0.385851 0.152733 -1.3791
-0.383171 0.152733 -1.3791
-0.380492 0.152733 -1.3791
-0.377812 0.152733 -1.3791
-0.375133 0.152733 -1.3791
-0.372453 0.152733 -1.3791
-0.369774 0.152733 -1.3791
-0.367094 0.152733 -1.3791
-0.364414 0.152733 -1.3791
-0.361735 0.152733 -1.3791
-0.359055 0.152733 -1.3791
-0.356376 0.152733 -1.3791
-0.353696 0.152733 -1.3791
-0.351017 0.152733 -1.3791
-0.348337 0.152733 -1.3791
-0.345658 0.152733 -1.3791
-0.342978 0.152733 -1.3791
-0.340299 0.152733 -1.3791
-0.337619 0.152733 -1.3791
-0.33494 0.152733 -1.3791
-0.33226 0.152733 -1.3791
-0.329581 0.152733 -1.3791
-0.326901 0.152733 -1.3791
-0.324222 0.152733 -1.3791
-0.321542 0.152733 -1.3791
-0.318863 0.152733 -1.3791
-0.316183 0.152733 -1.3791
-0.313504 0.152733 -1.3791
-0.310824 0.152733 -1.3791
-0.308145 0.152733 -1.3791
-0.305465 0.152733 -1.3791
-0.302786 0.152733 -1.3791
-0.300106 0.152733 -1.3791
-0.297427 0.152733 -1.3791
-0.294747 0.152733 -1.3791
-0.292067 0.152733 -1.3791
-0.289388 0.152733 -1.3791
-0.286708 0.152733 -1.3791
-0.284029 0.152733 -1.3791
-0.281349 0.152733 -1.3791
-0.27867 0.152733 -1.3791
-0.27599 0.152733 -1.3791
-0.273311 0.152733 -1.3791
-0.270631 0.152733 -1.3791
-0.267952 0.152733 -1.3791
-0.265272 0.152733 -1.3791
-0.262593 0.152733 -1.3791
-0.259913 0.152733 -1.3791
-0.257234 0.152733 -1.3791
-0.254554 0.152733 -1.3791
-0.251875 0.152733 -1.3791
-0.249195 0.152733 -1.3791
-0.246516 0.152733 -1.3791
-0.243836 0.152733 -1.3791
-0.241157 0.152733 -1.3791
-0.238477 0.152733 -1.3791
-0.235798 0.152733 -1.3791
-0.233118 0.152733 -1.3791
-0.230439 0.152733 -1.3791
-0.227759 0.152733 -1.3791
-0.22508 0.152733 -1.3791
-0.2224 0.152733 -1.3791
-0.219721 0.152733 -1.3791
-0.217041 0.152733 -1.3791
-0.214361 0.152733 -1.3791
-0.211682 0.152733 -1.3791
-0.209002 0.152733 -1.3791
-0.206323 0.152733 -1.3791
-0.203643 0.152733 -1.3791
-0.200964 0.152733 -1.3791
-0.198284 0.152733 -1.3791
-0.195605 0.152733 -1.3791
-0.192925 0.152733 -1.3791
-0.190246 0.152733 -1.3791
-0.187566 0.152733 -1.3791
-0.184887 0.152733 -1.3791
-0.182207 0.152733 -1.3791
-0.179528 0.152733 -1.3791
-0.176848 0.152733 -1.3791
-0.174169 0.152733 -1.3791
-0.171489 0.152733 -1.3791
-0.16881 0.152733 -1.3791
-0.16613 0.152733 -1.3791
-0.163451 0.152733 -1.3791
-0.160771 0.152733 -1.3791
-0.158092 0.152733 -1.3791
-0.155412 0.152733 -1.3791
-0.152733 0.152733 -1.3791
-0.150053 0.152733 -1.3791
-0.147374 0.152733 -1.3791
-0.144694 0.152733 -1.3791
-0.142014 0.152733 -1.3791
-0.139335 0.152733 -1.3791
-0.136655 0.152733 -1.3791
-0.133976 0.152733 -1.3791
-0.131296 0.152733 -1.3791
-0.128617 0.152733 -1.3791
-0.125937 0.152733 -1.3791
-0.123258 0.152733 -1.3791
-0.120578 0.152733 -1.3791
-0.117899 0.152733 -1.3791
-0.115219 0.152733 -1.3791
-0.11254 0.152733 -1.3791
-0.10986 0.152733 -1.3791
-0.107181 0.152733 -1.3791
-0.104501 0.152733 -1.3791
-0.101822 0.152733 -1.3791
-0.0991422 0.152733 -1.3791
-0.0964627 0.152733 -1.3791
-0.0937831 0.152733 -1.3791
-0.0911036 0.152733 -1.3791
-0.0884241 0.152733 -1.3791
-0.0857446 0.152733 -1.3791
-0.0830651 0.152733 -1.3791
-0.0803856 0.152733 -1.3791
-0.077706 0.152733 -1.3791
-0.0750265 0.152733 -1.3791
-0.072347 0.152733 -1.3791
-0.0696675 0.152733 -1.3791
-0.066988 0.152733 -1.3791
-0.0643084 0.152733 -1.3791
-0.0616289 0.152733 -1.3791
-0.0589494 0.152733 -1.3791
-0.0562699 0.152733 -1.3791
-0.0535904 0.152733 -1.3791
-0.0509108 0.152733 -1.3791
-0.0482313 0.152733 -1.3791
-0.0455518 0.152733 -1.3791
-0.0428723 0.152733 -1.3791
-0.0401928 0.152733 -1.3791
-0.0375133 0.152733 -1.3791
-0.0348337 0.152733 -1.3791
-0.0321542 0.152733 -1.3791
-0.0294747 0.152733 -1.3791
-0.0267952 0.152733 -1.3791
-0.0241157 0.152733 -1.3791
-0.0214361 0.152733 -1.3791
-0.0187566 0.152733 -1.3791
-0.0160771 0.152733 -1.3791
-0.0133976 0.152733 -1.3791
-0.0107181 0.152733 -1.3791
-0.00803856 0.152733 -1.3791
-0.00535904 0.152733 -1.3791
-0.00267952 0.152733 -1.3791
0 0.152733 -1.3791
0.00267952 0.152733 -1.3791
0.00535904 0.152733 -1.3791
0.00803856 0.152733 -1.3791
0.0107181 0.152733 -1.3791
0.0133976 0.152733 -1.3791
0.0160771 0.152733 -1.3791
0.0187566 0.152733 -1.3791
0.0214361 0.152733 -1.3791
0.0241157 0.152733 -1.3791
0.0267952 0.152733 -1.3791
0.0294747 0.152733 -1.3791
0.0321542 0.152733 -1.3791
0.0348337 0.152733 -1.3791
0.0375133 0.152733 -1.3791
0.0401928 0.152733 -1.3791
0.0428723 0.152733 -1.3791
0.0455518 0.152733 -1.3791
0.0482313 0.152733 -1.3791
0.0509108 0.152733 -1.3791
0.0535904 0.152733 -1.3791
0.0562699 0.152733 -1.3791
0.0589494 0.152733 -1.3791
0.0616289 0.152733 -1.3791
0.0643084 0.152733 -1.3791
0.066988 0.152733 -1.3791
0.0696675 0.152733 -1.3791
0.072347 0.152733 -1.3791
0.0750265 0.152733 -1.3791
0.077706 0.152733 -1.3791
0.0803856 0.152733 -1.3791
0.0830651 0.152733 -1.3791
0.0857446 0.152733 -1.3791
0.0884241 0.152733 -1.3791
0.0911036 0.152733 -1.3791
0.0937831 0.152733 -1.3791
0.0964627 0.152733 -1.3791
0.0991422 0.152733 -1.3791
0.101822 0.152733 -1.3791
0.104501 0.152733 -1.3791
0.107181 0.152733 -1.3791
0.10986 0.152733 -1.3791
0.11254 0.152733 -1.3791
0.115219 0.152733 -1.3791
0.117899 0.152733 -1.3791
0.120578 0.152733 -1.3791
0.123258 0.152733 -1.3791
0.125937 0.152733 -1.3791
0.128617 0.152733 -1.3791
0.131296 0.152733 -1.3791
0.133976 0.152733 -1.3791
0.136655 0.152733 -1.3791
0.139335 0.152733 -1.3791
0.142014 0.152733 -1.3791
0.144694 0.152733 -1.3791
0.147374 0.152733 -1.3791
0.150053 0.152733 -1.3791
0.152733 0.152733 -1.3791
0.155412 0.152733 -1.3791
0.158092 0.152733 -1.3791
0.160771 0.152733 -1.3791
0.163451 0.152733 -1.3791
0.16613 0.152733 -1.3791
0.16881 0.152733 -1.3791
0.171489 0.152733 -1.3791
0.174169 0.152733 -1.3791
0.176848 0.152733 -1.3791
0.179528 0.152733 -1.3791
0.182207 0.152733 -1.3791
0.184887 0.152733 -1.3791
0.187566 0.152733 -1.3791
0.190246 0.152733 -1.3791
0.192925 0.152733 -1.3791
0.195605 0.152733 -1.3791
0.198284 0.152733 -1.3791
0.200964 0.152733 -1.3791
0.203643 0.152733 -1.3791
0.206323 0.152733 -1.3791
0.209002 0.152733 -1.3791
0.211682 0.152733 -1.3791
0.214361 0.152733 -1.3791
0.217041 0.152733 -1.3791
0.219721 0.152733 -1.3791
0.2224 0.152733 -1.3791
0.22508 0.152733 -1.3791
0.227759 0.152733 -1.3791
0.230439 0.152733 -1.3791
0.233118 0.152733 -1.3791
0.235798 0.152733 -1.3791
0.238477 0.152733 -1.3791
0.241157 0.152733 -1.3791
0.243836 0.152733 -1.3791
0.246516 0.152733 -1.3791
0.249195 0.152733 -1.3791
0.251875 0.152733 -1.3791
0.254554 0.152733 -1.3791
0.257234 0.152733 -1.3791
0.259913 0.152733 -1.3791
0.262593 0.152733 -1.3791
0.265272 0.152733 -1.3791
0.267952 0.152733 -1.3791
0.270631 0.152733 -1.3791
0.273311 0.152733 -1.3791
0.27599 0.152733 -1.3791
0.27867 0.152733 -1.3791
0.281349 0.152733 -1.3791
0.284029 0.152733 -1.3791
0.286708 0.152733 -1.3791
0.289388 0.152733 -1.3791
0.292067 0.152733 -1.3791
0.294747 0.152733 -1.3791
0.297427 0.152733 -1.3791
0.300106 0.152733 -1.3791
0.302786 0.152733 -1.3791
0.305465 0.152733 -1.3791
0.308145 0.152733 -1.3791
0.310824 0.152733 -1.3791
0.313504 0.152733 -1.3791
0.316183 0.152733 -1.3791
0.318863 0.152733 -1.3791
0.321542 0.152733 -1.3791
0.324222 0.152733 -1.3791
0.326901 0.152733 -1.3791
0.329581 0.152733 -1.3791
0.33226 0.152733 -1.3791
0.33494 0.152733 -1.3791
0.337619 0.152733 -1.3791
0.340299 0.152733 -1.3791
0.342978 0.152733 -1.3791
0.345658 0.152733 -1.3791
0.348337 0.152733 -1.3791
0.351017 0.152733 -1.3791
0.353696 0.152733 -1.3791
0.356376 0.152733 -1.3791
0.359055 0.152733 -1.3791
0.361735 0.152733 -1.3791
0.364414 0.152733 -1.3791
0.367094 0.152733 -1.3791
0.369774 0.152733 -1.3791
0.372453 0.152733 -1.3791
0.375133 0.152733 -1.3791
0.377812 0.152733 -1.3791
0.380492 0.152733 -1.3791
0.383171 0.152733 -1.3791
0.385851 0.152733 -1.3791
0.38853 0.152733 -1.3791
0.39121 0.152733 -1.3791
0.393889 0.152733 -1.3791
0.396569 0.152733 -1.3791
-0.398905 0.155278 -1.37791
-0.396228 0.155278 -1.37791
-0.39355 0.155278 -1.37791
-0.390873 0.155278 -1.37791
-0.388196 0.155278 -1.37791
-0.385519 0.155278 -1.37791
-0.382841 0.155278 -1.37791
-0.380164 0.155278 -1.37791
-0.377487 0.155278 -1.37791
-0.37481 0.155278 -1.37791
-0.372133 0.155278 -1.37791
-0.369455 0.155278 -1.37791
-0.366778 0.155278 -1.37791
-0.364101 0.155278 -1.37791
-0.361424 0.155278 -1.37791
-0.358747 0.155278 -1.37791
-0.356069 0.155278 -1.37791
-0.353392 0.155278 -1.37791
-0.350715 0.155278 -1.37791
-0.348038 0.155278 -1.37791
-0.345361 0.155278 -1.37791
-0.342683 0.155278 -1.37791
-0.340006 0.155278 -1.37791
-0.337329 0.155278 -1.37791
-0.334652 0.155278 -1.37791
-0.331974 0.155278 -1.37791
-0.329297 0.155278 -1.37791
-0.32662 0.155278 -1.37791
-0.323943 0.155278 -1.37791
-0.321266 0.155278 -1.37791
-0.318588 0.155278 -1.37791
-0.315911 0.155278 -1.37791
-0.313234 0.155278 -1.37791
-0.310557 0.155278 -1.37791
-0.30788 0.155278 -1.37791
-0.305202 0.155278 -1.37791
-0.302525 0.155278 -1.37791
-0.299848 0.155278 -1.37791
-0.297171 0.155278 -1.37791
-0.294493 0.155278 -1.37791
-0.291816 0.155278 -1.37791
-0.289139 0.155278 -1.37791
-0.286462 0.155278 -1.37791
-0.283785 0.155278 -1.37791
-0.281107 0.155278 -1.37791
-0.27843 0.155278 -1.37791
-0.275753 0.155278 -1.37791
-0.273076 0.155278 -1.37791
-0.270399 0.155278 -1.37791
-0.267721 0.155278 -1.37791
-0.265044 0.155278 -1.37791
-0.262367 0.155278 -1.37791
-0.25969 0.155278 -1.37791
-0.257012 0.155278 -1.37791
-0.254335 0.155278 -1.37791
-0.251658 0.155278 -1.37791
-0.248981 0.155278 -1.37791
-0.246304 0.155278 -1.37791
-0.243626 0.155278 -1.37791
-0.240949 0.155278 -1.37791
-0.238272 0.155278 -1.37791
-0.235595 0.155278 -1.37791
-0.232918 0.155278 -1.37791
-0.23024 0.155278 -1.37791
-0.227563 0.155278 -1.37791
-0.224886 0.155278 -1.37791
-0.222209 0.155278 -1.37791
-0.219531 0.155278 -1.37791
-0.216854 0.155278 -1.37791
-0.214177 0.155278 -1.37791
-0.2115 0.155278 -1.37791
-0.208823 0.155278 -1.37791
-0.206145 0.155278 -1.37791
-0.203468 0.155278 -1.37791
-0.200791 0.155278 -1.37791
-0.198114 0.155278 -1.37791
-0.195437 0.155278 -1.37791
-0.192759 0.155278 -1.37791
-0.190082 0.155278 -1.37791
-0.187405 0.155278 -1.37791
-0.184728 0.155278 -1.37791
-0.182051 0.155278 -1.37791
-0.179373 0.155278 -1.37791
-0.176696 0.155278 -1.37791
-0.174019 0.155278 -1.37791
-0.171342 0.155278 -1.37791
-0.168664 0.155278 -1.37791
-0.165987 0.155278 -1.37791
-0.16331 0.155278 -1.37791
-0.160633 0.155278 -1.37791
-0.157956 0.155278 -1.37791
-0.155278 0.155278 -1.37791
-0.152601 0.155278 -1.37791
-0.149924 0.155278 -1.37791
-0.147247 0.155278 -1.37791
-0.14457 0.155278 -1.37791
-0.141892 0.155278 -1.37791
-0.139215 0.155278 -1.37791
-0.136538 0.155278 -1.37791
-0.133861 0.155278 -1.37791
-0.131183 0.155278 -1.37791
-0.128506 0.155278 -1.37791
-0.125829 0.155278 -1.37791
-0.123152 0.155278 -1.37791
-0.120475 0.155278 -1.37791
-0.117797 0.155278 -1.37791
-0.11512 0.155278 -1.37791
-0.112443 0.155278 -1.37791
-0.109766 0.155278 -1.37791
-0.107089 0.155278 -1.37791
-0.104411 0.155278 -1.37791
-0.101734 0.155278 -1.37791
-0.0990569 0.155278 -1.37791
-0.0963797 0.155278 -1.37791
-0.0937025 0.155278 -1.37791
-0.0910253 0.155278 -1.37791
-0.088348 0.155278 -1.37791
-0.0856708 0.155278 -1.37791
-0.0829936 0.155278 -1.37791
-0.0803164 0.155278 -1.37791
-0.0776392 0.155278 -1.37791
-0.074962 0.155278 -1.37791
-0.0722848 0.155278 -1.37791
-0.0696075 0.155278 -1.37791
-0.0669303 0.155278 -1.37791
-0.0642531 0.155278 -1.37791
-0.0615759 0.155278 -1.37791
-0.0588987 0.155278 -1.37791
-0.0562215 0.155278 -1.37791
-0.0535443 0.155278 -1.37791
-0.0508671 0.155278 -1.37791
-0.0481898 0.155278 -1.37791
-0.0455126 0.155278 -1.37791
-0.0428354 0.155278 -1.37791
-0.0401582 0.155278 -1.37791
-0.037481 0.155278 -1.37791
-0.0348038 0.155278 -1.37791
-0.0321266 0.155278 -1.37791
-0.0294493 0.155278 -1.37791
-0.0267721 0.155278 -1.37791
-0.0240949 0.155278 -1.37791
-0.0214177 0.155278 -1.37791
-0.0187405 0.155278 -1.37791
-0.0160633 0.155278 -1.37791
-0.0133861 0.155278 -1.37791
-0.0107089 0.155278 -1.37791
-0.00803164 0.155278 -1.37791
-0.00535443 0.155278 -1.37791
-0.00267721 0.155278 -1.37791
0 0.155278 -1.37791
0.00267721 0.155278 -1.37791
0.00535443 0.155278 -1.37791
0.00803164 0.155278 -1.37791
0.0107089 0.155278 -1.37791
0.0133861 0.155278 -1.37791
0.0160633 0.155278 -1.37791
0.0187405 0.155278 -1.37791
0.0214177 0.155278 -1.37791
0.0240949 0.155278 -1.37791
0.0267721 0.155278 -1.37791
0.0294493 0.155278 -1.37791
0.0321266 0.155278 -1.37791
0.0348038 0.155278 -1.37791
0.037481 0.155278 -1.37791
0.0401582 0.155278 -1.37791
0.0428354 0.155278 -1.37791
0.0455126 0.155278 -1.37791
0.0481898 0.155278 -1.37791
0.0508671 0.155278 -1.37791
0.0535443 0.155278 -1.37791
0.0562215 0.155278 -1.37791
0.0588987 0.155278 -1.37791
0.0615759 0.155278 -1.37791
0.0642531 0.155278 -1.37791
0.0669303 0.155278 -1.37791
0.0696075 0.155278 -1.37791
0.0722848 0.155278 -1.37791
0.074962 0.155278 -1.37791
0.0776392 0.155278 -1.37791
0.0803164 0.155278 -1.37791
0.0829936 0.155278 -1.37791
0.0856708 0.155278 -1.37791
0.088348 0.155278 -1.37791
0.0910253 0.155278 -1.37791
0.0937025 0.155278 -1.37791
0.0963797 0.155278 -1.37791
0.0990569 0.155278 -1.37791
0.101734 0.155278 -1.37791
0.104411 0.155278 -1.37791
0.107089 0.155278 -1.37791
0.109766 0.155278 -1.37791
0.112443 0.155278 -1.37791
0.11512 0.155278 -1.37791
0.117797 0.155278 -1.37791
0.120475 0.155278 -1.37791
0.123152 0.155278 -1.37791
0.125829 0.155278 -1.37791
0.128506 0.155278 -1.37791
0.131183 0.155278 -1.37791
0.133861 0.155278 -1.37791
0.136538 0.155278 -1.37791
0.139215 0.155278 -1.37791
0.141892 0.155278 -1.37791
0.14457 0.155278 -1.37791
0.147247 0.155278 -1.37791
0.149924 0.155278 -1.37791
0.152601 0.155278 -1.37791
0.155278 0.155278 -1.37791
0.157956 0.155278 -1.37791
0.160633 0.155278 -1.37791
0.16331 0.155278 -1.37791
0.165987 0.155278 -1.37791
0.168664 0.155278 -1.37791
0.171342 0.155278 -1.37791
0.174019 0.155278 -1.37791
0.176696 0.155278 -1.37791
0.179373 0.155278 -1.37791
0.182051 0.155278 -1.37791
0.184728 0.155278 -1.37791
0.187405 0.155278 -1.37791
0.190082 0.155278 -1.37791
0.192759 0.155278 -1.37791
0.195437 0.155278 -1.37791
0.198114 0.155278 -1.37791
0.200791 0.155278 -1.37791
0.203468 0.155278 -1.37791
0.206145 0.155278 -1.37791
0.208823 0.155278 -1.37791
0.2115 0.155278 -1.37791
0.214177 0.155278 -1.37791
0.216854 0.155278 -1.37791
0.219531 0.155278 -1.37791
0.222209 0.155278 -1.37791
0.224886 0.155278 -1.37791
0.227563 0.155278 -1.37791
0.23024 0.155278 -1.37791
0.232918 0.155278 -1.37791
0.235595 0.155278 -1.37791
0.238272 0.155278 -1.37791
0.240949 0.155278 -1.37791
0.243626 0.155278 -1.37791
0.246304 0.155278 -1.37791
0.248981 0.155278 -1.37791
0.251658 0.155278 -1.37791
0.254335 0.155278 -1.37791
0.257012 0.155278 -1.37791
0.25969 0.155278 -1.37791
0.262367 0.155278 -1.37791
0.265044 0.155278 -1.37791
0.267721 0.155278 -1.37791
0.270399 0.155278 -1.37791
0.273076 0.155278 -1.37791
0.275753 0.155278 -1.37791
0.27843 0.155278 -1.37791
0.281107 0.155278 -1.37791
0.283785 0.155278 -1.37791
0.286462 0.155278 -1.37791
0.289139 0.155278 -1.37791
0.291816 0.155278 -1.37791
0.294493 0.155278 -1.37791
0.297171 0.155278 -1.37791
0.299848 0.155278 -1.37791
0.302525 0.155278 -1.37791
0.305202 0.155278 -1.37791
0.30788 0.155278 -1.37791
0.310557 0.155278 -1.37791
0.313234 0.155278 -1.37791
0.315911 0.155278 -1.37791
0.318588 0.155278 -1.37791
0.321266 0.155278 -1.37791
0.323943 0.155278 -1.37791
0.32662 0.155278 -1.37791
0.329297 0.155278 -1.37791
0.331974 0.155278 -1.37791
0.334652 0.155278 -1.37791
0.337329 0.155278 -1.37791
0.340006 0.155278 -1.37791
0.342683 0.155278 -1.37791
0.345361 0.155278 -1.37791
0.348038 0.155278 -1.37791
0.350715 0.155278 -1.37791
0.353392 0.155278 -1.37791
0.356069 0.155278 -1.37791
0.358747 0.155278 -1.37791
0.361424 0.155278 -1.37791
0.364101 0.155278 -1.37791
0.366778 0.155278 -1.37791
0.369455 0.155278 -1.37791
0.372133 0.155278 -1.37791
0.37481 0.155278 -1.37791
0.377487 0.155278 -1.37791
0.380164 0.155278 -1.37791
0.382841 0.155278 -1.37791
0.385519 0.155278 -1.37791
0.388196 0.155278 -1.37791
0.390873 0.155278 -1.37791
0.39355 0.155278 -1.37791
0.396228 0.155278 -1.37791
-0.401237 0.15782 -1.37673
-0.398562 0.15782 -1.37673
-0.395887 0.15782 -1.37673
-0.393212 0.15782 -1.37673
-0.390537 0.15782 -1.37673
-0.387862 0.15782 -1.37673
-0.385187 0.15782 -1.37673
-0.382512 0.15782 -1.37673
-0.379837 0.15782 -1.37673
-0.377162 0.15782 -1.37673
-0.374487 0.15782 -1.37673
-0.371812 0.15782 -1.37673
-0.369138 0.15782 -1.37673
-0.366463 0.15782 -1.37673
-0.363788 0.15782 -1.37673
-0.361113 0.15782 -1.37673
-0.358438 0.15782 -1.37673
-0.355763 0.15782 -1.37673
-0.353088 0.15782 -1.37673
-0.350413 0.15782 -1.37673
-0.347738 0.15782 -1.37673
-0.345063 0.15782 -1.37673
-0.342388 0.15782 -1.37673
-0.339714 0.15782 -1.37673
-0.337039 0.15782 -1.37673
-0.334364 0.15782 -1.37673
-0.331689 0.15782 -1.37673
-0.329014 0.15782 -1.37673
-0.326339 0.15782 -1.37673
-0.323664 0.15782 -1.37673
-0.320989 0.15782 -1.37673
-0.318314 0.15782 -1.37673
-0.315639 0.15782 -1.37673
-0.312964 0.15782 -1.37673
-0.31029 0.15782 -1.37673
-0.307615 0.15782 -1.37673
-0.30494 0.15782 -1.37673
-0.302265 0.15782 -1.37673
-0.29959 0.15782 -1.37673
-0.296915 0.15782 -1.37673
-0.29424 0.15782 -1.37673
-0.291565 0.15782 -1.37673
-0.28889 0.15782 -1.37673
-0.286215 0.15782 -1.37673
-0.28354 0.15782 -1.37673
-0.280866 0.15782 -1.37673
-0.278191 0.15782 -1.37673
-0.275516 0.15782 -1.37673
-0.272841 0.15782 -1.37673
-0.270166 0.15782 -1.37673
-0.267491 0.15782 -1.37673
-0.264816 0.15782 -1.37673
-0.262141 0.15782 -1.37673
-0.259466 0.15782 -1.37673
-0.256791 0.15782 -1.37673
-0.254116 0.15782 -1.37673
-0.251442 0.15782 -1.37673
-0.248767 0.15782 -1.37673
-0.246092 0.15782 -1.37673
-0.243417 0.15782 -1.37673
-0.240742 0.15782 -1.37673
-0.238067 0.15782 -1.37673
-0.235392 0.15782 -1.37673
-0.232717 0.15782 -1.37673
-0.230042 0.15782 -1.37673
-0.227367 0.15782 -1.37673
-0.224692 0.15782 -1.37673
-0.222018 0.15782 -1.37673
-0.219343 0.15782 -1.37673
-0.216668 0.15782 -1.37673
-0.213993 0.15782 -1.37673
-0.211318 0.15782 -1.37673
-0.208643 0.15782 -1.37673
-0.205968 0.15782 -1.37673
-0.203293 0.15782 -1.37673
-0.200618 0.15782 -1.37673
-0.197943 0.15782 -1.37673
-0.195268 0.15782 -1.37673
-0.192594 0.15782 -1.37673
-0.189919 0.15782 -1.37673
-0.187244 0.15782 -1.37673
-0.184569 0.15782 -1.37673
-0.181894 0.15782 -1.37673
-0.179219 0.15782 -1.37673
-0.176544 0.15782 -1.37673
-0.173869 0.15782 -1.37673
-0.171194 0.15782 -1.37673
-0.168519 0.15782 -1.37673
-0.165844 0.15782 -1.37673
-0.16317 0.15782 -1.37673
-0.160495 0.15782 -1.37673
-0.15782 0.15782 -1.37673
-0.155145 0.15782 -1.37673
-0.15247 0.15782 -1.37673
-0.149795 0.15782 -1.37673
-0.14712 0.15782 -1.37673
-0.144445 0.15782 -1.37673
-0.14177 0.15782 -1.37673
-0.139095 0.15782 -1.37673
-0.13642 0.15782 -1.37673
-0.133746 0.15782 -1.37673
-0.131071 0.15782 -1.37673
-0.128396 0.15782 -1.37673
-0.125721 0.15782 -1.37673
-0.123046 0.15782 -1.37673
-0.120371 0.15782 -1.37673
-0.117696 0.15782 -1.37673
-0.115021 0.15782 -1.37673
-0.112346 0.15782 -1.37673
-0.109671 0.15782 -1.37673
-0.106996 0.15782 -1.37673
-0.104321 0.15782 -1.37673
-0.101647 0.15782 -1.37673
-0.0989717 0.15782 -1.37673
-0.0962968 0.15782 -1.37673
-0.0936219 0.15782 -1.37673
-0.0909469 0.15782 -1.37673
-0.088272 0.15782 -1.37673
-0.0855971 0.15782 -1.37673
-0.0829222 0.15782 -1.37673
-0.0802473 0.15782 -1.37673
-0.0775724 0.15782 -1.37673
-0.0748975 0.15782 -1.37673
-0.0722226 0.15782 -1.37673
-0.0695477 0.15782 -1.37673
-0.0668728 0.15782 -1.37673
-0.0641978 0.15782 -1.37673
-0.0615229 0.15782 -1.37673
-0.058848 0.15782 -1.37673
-0.0561731 0.15782 -1.37673
-0.0534982 0.15782 -1.37673
-0.0508233 0.15782 -1.37673
-0.0481484 0.15782 -1.37673
-0.0454735 0.15782 -1.37673
-0.0427986 0.15782 -1.37673
-0.0401237 0.15782 -1.37673
-0.0374487 0.15782 -1.37673
-0.0347738 0.15782 -1.37673
-0.0320989 0.15782 -1.37673
-0.029424 0.15782 -1.37673
-0.0267491 0.15782 -1.37673
-0.0240742 0.15782 -1.37673
-0.0213993 0.15782 -1.37673
-0.0187244 0.15782 -1.37673
-0.0160495 0.15782 -1.37673
-0.0133746 0.15782 -1.37673
-0.0106996 0.15782 -1.37673
-0.00802473 0.15782 -1.37673
-0.00534982 0.15782 -1.37673
-0.00267491 0.15782 -1.37673
0 0.15782 -1.37673
0.00267491 0.15782 -1.37673
0.00534982 0.15782 -1.37673
0.00802473 0.15782 -1.37673
0.0106996 0.15782 -1.37673
0.0133746 0.15782 -1.37673
0.0160495 0.15782 -1.37673
0.0187244 0.15782 -1.37673
0.0213993 0.15782 -1.37673
0.0240742 0.15782 -1.37673
0.0267491 0.15782 -1.37673
0.029424 0.15782 -1.37673
0.0320989 0.15782 -1.37673
0.0347738 0.15782 -1.37673
0.0374487 0.15782 -1.37673
0.0401237 0.15782 -1.37673
0.0427986 0.15782 -1.37673
0.0454735 0.15782 -1.37673
0.0481484 0.15782 -1.37673
0.0508233 0.15782 -1.37673
0.0534982 0.15782 -1.37673
0.0561731 0.15782 -1.37673
0.058848 0.15782 -1.37673
0.0615229 0.15782 -1.37673
0.0641978 0.15782 -1.37673
0.0668728 0.15782 -1.37673
0.0695477 0.15782 -1.37673
0.0722226 0.15782 -1.37673
0.0748975 0.15782 -1.37673
0.0775724 0.15782 -1.37673
0.0802473 0.15782 -1.37673
0.0829222 0.15782 -1.37673
0.0855971 0.15782 -1.37673
0.088272 0.15782 -1.37673
0.0909469 0.15782 -1.37673
0.0936219 0.15782 -1.37673
0.0962968 0.15782 -1.37673
0.0989717 0.15782 -1.37673
0.101647 0.15782 -1.37673
0.104321 0.15782 -1.37673
0.106996 0.15782 -1.37673
0.109671 0.15782 -1.37673
0.112346 0.15782 -1.37673
0.115021 0.15782 -1.37673
0.117696 0.15782 -1.37673
0.120371 0.15782 -1.37673
0.123046 0.15782 -1.37673
0.125721 0.15782 -1.37673
0.128396 0.15782 -1.37673
0.131071 0.15782 -1.37673
0.133746 0.15782 -1.37673
0.13642 0.15782 -1.37673
0.139095 0.15782 -1.37673
0.14177 0.15782 -1.37673
0.144445 0.15782 -1.37673
0.14712 0.15782 -1.37673
0.149795 0.15782 -1.37673
