# .PCD v.5 - Point Cloud Data file format
FIELDS x y z
SIZE 4 4 4
TYPE F F F
WIDTH 1741
HEIGHT 1
POINTS 1741
DATA ascii
-0.222953 0.0333148 -1.31896
-0.219784 0.0332232 -1.31534
-0.216632 0.033132 -1.31172
-0.213498 0.0330413 -1.30814
-0.210745 0.0330082 -1.30682
-0.20805 0.0329835 -1.30585
-0.20536 0.0329589 -1.30487
-0.202673 0.0329343 -1.3039
-0.200183 0.0329414 -1.30418
-0.197779 0.0329632 -1.30504
-0.195373 0.032985 -1.30591
-0.192963 0.0330068 -1.30677
-0.190551 0.0330289 -1.30764
-0.188369 0.0330919 -1.31014
-0.186179 0.0331552 -1.31265
-0.183981 0.0332188 -1.31516
-0.181774 0.0332826 -1.31769
-0.179631 0.03336 -1.32075
-0.177644 0.0334692 -1.32507
-0.175645 0.0335791 -1.32943
-0.173632 0.0336898 -1.33381
-0.171611 0.0338022 -1.33826
-0.169872 0.0339744 -1.34508
-0.168115 0.0341484 -1.35197
-0.16634 0.0343242 -1.35892
-0.164817 0.0345585 -1.3682
-0.163504 0.0348451 -1.37955
-0.233128 0.0366719 -1.34817
-0.228478 0.0363488 -1.33629
-0.224369 0.0361054 -1.32734
-0.220988 0.0359748 -1.32254
-0.217816 0.0358755 -1.31889
-0.214661 0.0357768 -1.31526
-0.211737 0.0357147 -1.31298
-0.209029 0.0356879 -1.31199
-0.206325 0.0356611 -1.31101
-0.203625 0.0356344 -1.31003
-0.201024 0.0356246 -1.30966
-0.198611 0.0356482 -1.31053
-0.196195 0.0356719 -1.3114
-0.193776 0.0356956 -1.31228
-0.191353 0.0357193 -1.31315
-0.189088 0.0357734 -1.31514
-0.186891 0.0358421 -1.31766
-0.184686 0.0359111 -1.3202
-0.182472 0.0359803 -1.32274
-0.180249 0.0360498 -1.3253
-0.178256 0.0361678 -1.32964
-0.176252 0.0362871 -1.33402
-0.174234 0.0364071 -1.33843
-0.172203 0.0365279 -1.34287
-0.170379 0.036697 -1.34909
-0.168619 0.0368855 -1.35602
-0.166842 0.0370759 -1.36302
-0.16518 0.0372988 -1.37122
-0.236323 0.0398297 -1.36664
-0.230097 0.0392211 -1.34576
-0.225948 0.0389566 -1.33668
-0.222205 0.0387567 -1.32983
-0.219012 0.0386492 -1.32614
-0.215837 0.0385423 -1.32247
-0.212739 0.0384467 -1.31919
-0.210017 0.0384177 -1.31819
-0.207299 0.0383888 -1.3172
-0.204586 0.0383599 -1.31621
-0.201877 0.038331 -1.31522
-0.199451 0.0383559 -1.31607
-0.197025 0.0383815 -1.31695
-0.194596 0.0384071 -1.31783
-0.192164 0.0384327 -1.31871
-0.189812 0.0384753 -1.32017
-0.187608 0.0385495 -1.32272
-0.185395 0.038624 -1.32527
-0.183174 0.0386987 -1.32784
-0.180944 0.0387738 -1.33041
-0.178872 0.0388852 -1.33423
-0.176863 0.0390138 -1.33865
-0.17484 0.0391433 -1.34309
-0.172804 0.0392736 -1.34756
-0.170889 0.0394358 -1.35313
-0.169126 0.039639 -1.3601
-0.167346 0.0398443 -1.36714
-0.165547 0.0400517 -1.37426
-0.23174 0.0421345 -1.35537
-0.22755 0.0418483 -1.34616
-0.223436 0.0415695 -1.33719
-0.220222 0.0414535 -1.33346
-0.217026 0.0413382 -1.32975
-0.213847 0.0412235 -1.32606
-0.211014 0.0411735 -1.32445
-0.208283 0.0411424 -1.32345
-0.205556 0.0411112 -1.32245
-0.202833 0.0410802 -1.32145
-0.200297 0.0410866 -1.32166
-0.197862 0.0411141 -1.32254
-0.195423 0.0411417 -1.32343
-0.192981 0.0411692 -1.32432
-0.190541 0.041198 -1.32524
-0.18833 0.0412778 -1.32781
-0.18611 0.0413579 -1.33038
-0.183882 0.0414382 -1.33297
-0.181645 0.0415189 -1.33556
-0.179492 0.0416213 -1.33886
-0.177478 0.0417595 -1.3433
-0.17545 0.0418986 -1.34778
-0.173409 0.0420386 -1.35228
-0.171402 0.0421912 -1.35719
-0.169637 0.0424092 -1.3642
-0.167853 0.0426295 -1.37129
-0.166052 0.042852 -1.37845
-0.234564 0.0453136 -1.37189
-0.229175 0.0447813 -1.35577
-0.225002 0.0444771 -1.34656
-0.221445 0.044289 -1.34087
-0.218228 0.0441651 -1.33712
-0.215028 0.0440419 -1.33339
-0.212021 0.0439556 -1.33077
-0.209276 0.0439222 -1.32976
-0.206535 0.0438888 -1.32875
-0.203799 0.0438554 -1.32774
-0.201151 0.0438405 -1.32729
-0.198705 0.04387 -1.32818
-0.196257 0.0438995 -1.32908
-0.193805 0.0439291 -1.32997
-0.19135 0.0439587 -1.33087
-0.189058 0.0440272 -1.33294
-0.186831 0.0441129 -1.33554
-0.184596 0.0441989 -1.33814
-0.182351 0.0442853 -1.34076
-0.180116 0.0443765 -1.34352
-0.178097 0.0445243 -1.34799
-0.176065 0.0446731 -1.3525
-0.174018 0.0448229 -1.35703
-0.171958 0.0449737 -1.3616
-0.17015 0.0451961 -1.36833
-0.168364 0.0454315 -1.37546
-0.230823 0.0477565 -1.36552
-0.226609 0.0474297 -1.35618
-0.222682 0.0471561 -1.34836
-0.219443 0.0470235 -1.34456
-0.216222 0.0468916 -1.34079
-0.213038 0.0467644 -1.33715
-0.210279 0.0467286 -1.33613
-0.207524 0.0466929 -1.33511
-0.204774 0.0466573 -1.33409
-0.202028 0.0466218 -1.33308
-0.199556 0.0466495 -1.33387
-0.197098 0.0466811 -1.33477
-0.194636 0.0467126 -1.33567
-0.192171 0.0467442 -1.33658
-0.189792 0.0467979 -1.33811
-0.187557 0.0468894 -1.34073
-0.185315 0.0469812 -1.34335
-0.183063 0.0470734 -1.34599
-0.180803 0.0471659 -1.34864
-0.178721 0.0473085 -1.35271
-0.176683 0.0474672 -1.35725
-0.174632 0.0476269 -1.36182
-0.172567 0.0477878 -1.36642
-0.170666 0.0479999 -1.37248
-0.168878 0.0482508 -1.37965
-0.232793 0.0508398 -1.37717
-0.228239 0.0504248 -1.36593
-0.224041 0.0500797 -1.35658
-0.220672 0.0499139 -1.35209
-0.21743 0.0497731 -1.34828
-0.214206 0.0496331 -1.34449
-0.211291 0.0495621 -1.34256
-0.208522 0.0495241 -1.34153
-0.205758 0.0494861 -1.3405
-0.202998 0.0494482 -1.33948
-0.200415 0.049453 -1.33961
-0.197946 0.0494865 -1.34052
-0.195474 0.0495201 -1.34143
-0.192999 0.0495538 -1.34234
-0.190531 0.0495902 -1.34332
-0.188289 0.0496875 -1.34596
-0.186039 0.0497852 -1.34861
-0.18378 0.0498832 -1.35126
-0.181513 0.0499817 -1.35393
-0.179349 0.0501123 -1.35747
-0.177307 0.050281 -1.36204
-0.17525 0.0504508 -1.36664
-0.17318 0.0506217 -1.37127
-0.171186 0.0508208 -1.37666
-0.229892 0.0534633 -1.37583
-0.225653 0.0530948 -1.36635
-0.221915 0.0528369 -1.35971
-0.218651 0.052687 -1.35585
-0.215406 0.052538 -1.35202
-0.212313 0.052423 -1.34906
-0.20953 0.0523826 -1.34802
-0.206752 0.0523422 -1.34698
-0.203978 0.052302 -1.34594
-0.20128 0.0522806 -1.34539
-0.198802 0.0523162 -1.34631
-0.19632 0.0523519 -1.34723
-0.193835 0.0523877 -1.34815
-0.191346 0.0524235 -1.34907
-0.189027 0.0525075 -1.35123
-0.18677 0.0526112 -1.3539
-0.184503 0.0527152 -1.35658
-0.182228 0.0528197 -1.35927
-0.179982 0.0529359 -1.36226
-0.177934 0.0531147 -1.36686
-0.175873 0.0532947 -1.37149
-0.173797 0.0534759 -1.37615
-0.227289 0.0561536 -1.37625
-0.223172 0.0557929 -1.36741
-0.219886 0.0556337 -1.36351
-0.216619 0.0554755 -1.35963
-0.21337 0.0553182 -1.35577
-0.210548 0.0552689 -1.35457
-0.207755 0.0552261 -1.35352
-0.204967 0.0551833 -1.35247
-0.202182 0.0551407 -1.35142
-0.199665 0.0551705 -1.35216
-0.197173 0.0552083 -1.35308
-0.194677 0.0552462 -1.35401
-0.192178 0.0552841 -1.35494
-0.189771 0.0553498 -1.35655
-0.187506 0.0554595 -1.35924
-0.185232 0.0555696 -1.36194
-0.182949 0.0556802 -1.36465
-0.180657 0.0557912 -1.36737
-0.178566 0.0559685 -1.37171
-0.176499 0.0561589 -1.37638
-0.224683 0.0588455 -1.37667
-0.221135 0.058614 -1.37125
-0.217846 0.0584464 -1.36733
-0.214575 0.0582797 -1.36343
-0.211576 0.0581833 -1.36118
-0.208768 0.0581381 -1.36012
-0.205966 0.0580929 -1.35906
-0.203167 0.0580477 -1.358
-0.200536 0.0580498 -1.35805
-0.198033 0.0580897 -1.35899
-0.195527 0.0581297 -1.35992
-0.193018 0.0581698 -1.36086
-0.19052 0.0582145 -1.36191
-0.188248 0.0583303 -1.36462
-0.185966 0.0584466 -1.36734
-0.183676 0.0585633 -1.37007
-0.181376 0.0586806 -1.37281
-0.179203 0.0588427 -1.3766
-0.222398 0.0616283 -1.37909
-0.219086 0.061451 -1.37512
-0.215794 0.0612748 -1.37117
-0.212613 0.0611263 -1.36785
-0.209792 0.0610786 -1.36678
-0.206974 0.0610308 -1.36572
-0.204161 0.0609832 -1.36465
-0.201414 0.0609542 -1.364
-0.198901 0.0609963 -1.36494
-0.196385 0.0610385 -1.36589
-0.193865 0.0610808 -1.36683
-0.191342 0.0611231 -1.36778
-0.188996 0.061224 -1.37004
-0.186707 0.0613465 -1.37278
-0.184409 0.0614695 -1.37553
-0.182101 0.061593 -1.3783
-0.217027 0.0643042 -1.37901
-0.213731 0.0641192 -1.37504
-0.210825 0.064048 -1.37351
-0.207993 0.0639977 -1.37244
-0.205165 0.0639475 -1.37136
-0.202342 0.0638974 -1.37028
-0.199776 0.0639285 -1.37095
-0.19725 0.0639729 -1.3719
-0.19472 0.0640174 -1.37286
-0.192186 0.0640619 -1.37381
-0.18975 0.0641407 -1.3755
-0.187453 0.0642695 -1.37826
-0.209021 0.066994 -1.37922
-0.206179 0.0669412 -1.37814
-0.203341 0.0668885 -1.37705
-0.20066 0.0668866 -1.37701
-0.198122 0.0669332 -1.37797
-0.195582 0.06698 -1.37894
-0.193037 0.0670268 -1.3799
-0.399248 0.152732 -1.3791
-0.396568 0.152732 -1.3791
-0.393889 0.152732 -1.3791
-0.391209 0.152732 -1.3791
-0.38853 0.152732 -1.3791
-0.38585 0.152732 -1.3791
-0.383171 0.152732 -1.3791
-0.380491 0.152732 -1.3791
-0.377812 0.152732 -1.3791
-0.375132 0.152732 -1.3791
-0.372453 0.152732 -1.3791
-0.369773 0.152732 -1.3791
-0.367094 0.152732 -1.3791
-0.364414 0.152732 -1.3791
-0.361735 0.152732 -1.3791
-0.359055 0.152732 -1.3791
-0.356376 0.152732 -1.3791
-0.353696 0.152732 -1.3791
-0.351017 0.152732 -1.3791
-0.348337 0.152732 -1.3791
-0.345658 0.152732 -1.3791
-0.342978 0.152732 -1.3791
-0.340299 0.152732 -1.3791
-0.337619 0.152732 -1.3791
-0.33494 0.152732 -1.3791
-0.33226 0.152732 -1.3791
-0.32958 0.152732 -1.3791
-0.326901 0.152732 -1.3791
-0.324221 0.152732 -1.3791
-0.321542 0.152732 -1.3791
-0.318862 0.152732 -1.3791
-0.316183 0.152732 -1.3791
-0.313503 0.152732 -1.3791
-0.310824 0.152732 -1.3791
-0.308144 0.152732 -1.3791
-0.305465 0.152732 -1.3791
-0.302785 0.152732 -1.3791
-0.300106 0.152732 -1.3791
-0.297426 0.152732 -1.3791
-0.294747 0.152732 -1.3791
-0.292067 0.152732 -1.3791
-0.289388 0.152732 -1.3791
-0.286708 0.152732 -1.3791
-0.284029 0.152732 -1.3791
-0.281349 0.152732 -1.3791
-0.27867 0.152732 -1.3791
-0.27599 0.152732 -1.3791
-0.273311 0.152732 -1.3791
-0.270631 0.152732 -1.3791
-0.267952 0.152732 -1.3791
-0.265272 0.152732 -1.3791
-0.262593 0.152732 -1.3791
-0.259913 0.152732 -1.3791
-0.257234 0.152732 -1.3791
-0.254554 0.152732 -1.3791
-0.251875 0.152732 -1.3791
-0.249195 0.152732 -1.3791
-0.246515 0.152732 -1.3791
-0.243836 0.152732 -1.3791
-0.241156 0.152732 -1.3791
-0.238477 0.152732 -1.3791
-0.235797 0.152732 -1.3791
-0.233118 0.152732 -1.3791
-0.230438 0.152732 -1.3791
-0.227759 0.152732 -1.3791
-0.225079 0.152732 -1.3791
-0.2224 0.152732 -1.3791
-0.21972 0.152732 -1.3791
-0.217041 0.152732 -1.3791
-0.214361 0.152732 -1.3791
-0.211682 0.152732 -1.3791
-0.209002 0.152732 -1.3791
-0.206323 0.152732 -1.3791
-0.203643 0.152732 -1.3791
-0.200964 0.152732 -1.3791
-0.198284 0.152732 -1.3791
-0.195605 0.152732 -1.3791
-0.192925 0.152732 -1.3791
-0.190246 0.152732 -1.3791
-0.187566 0.152732 -1.3791
-0.184887 0.152732 -1.3791
-0.182207 0.152732 -1.3791
-0.179528 0.152732 -1.3791
-0.176848 0.152732 -1.3791
-0.174169 0.152732 -1.3791
-0.171489 0.152732 -1.3791
-0.16881 0.152732 -1.3791
-0.16613 0.152732 -1.3791
-0.16345 0.152732 -1.3791
-0.160771 0.152732 -1.3791
-0.158091 0.152732 -1.3791
-0.155412 0.152732 -1.3791
-0.152732 0.152732 -1.3791
-0.150053 0.152732 -1.3791
-0.147373 0.152732 -1.3791
-0.144694 0.152732 -1.3791
-0.142014 0.152732 -1.3791
-0.139335 0.152732 -1.3791
-0.136655 0.152732 -1.3791
-0.133976 0.152732 -1.3791
-0.131296 0.152732 -1.3791
-0.128617 0.152732 -1.3791
-0.125937 0.152732 -1.3791
-0.123258 0.152732 -1.3791
-0.120578 0.152732 -1.3791
-0.117899 0.152732 -1.3791
-0.115219 0.152732 -1.3791
-0.11254 0.152732 -1.3791
-0.10986 0.152732 -1.3791
-0.107181 0.152732 -1.3791
-0.104501 0.152732 -1.3791
-0.101822 0.152732 -1.3791
-0.0991421 0.152732 -1.3791
-0.0964626 0.152732 -1.3791
-0.0937831 0.152732 -1.3791
-0.0911035 0.152732 -1.3791
-0.088424 0.152732 -1.3791
-0.0857445 0.152732 -1.3791
-0.083065 0.152732 -1.3791
-0.0803855 0.152732 -1.3791
-0.077706 0.152732 -1.3791
-0.0750265 0.152732 -1.3791
-0.0723469 0.152732 -1.3791
-0.0696674 0.152732 -1.3791
-0.0669879 0.152732 -1.3791
-0.0643084 0.152732 -1.3791
-0.0616289 0.152732 -1.3791
-0.0589494 0.152732 -1.3791
-0.0562698 0.152732 -1.3791
-0.0535903 0.152732 -1.3791
-0.0509108 0.152732 -1.3791
-0.0482313 0.152732 -1.3791
-0.0455518 0.152732 -1.3791
-0.0428723 0.152732 -1.3791
-0.0401927 0.152732 -1.3791
-0.0375132 0.152732 -1.3791
-0.0348337 0.152732 -1.3791
-0.0321542 0.152732 -1.3791
-0.0294747 0.152732 -1.3791
-0.0267952 0.152732 -1.3791
-0.0241156 0.152732 -1.3791
-0.0214361 0.152732 -1.3791
-0.0187566 0.152732 -1.3791
-0.0160771 0.152732 -1.3791
-0.0133976 0.152732 -1.3791
-0.0107181 0.152732 -1.3791
-0.00803855 0.152732 -1.3791
-0.00535903 0.152732 -1.3791
-0.00267952 0.152732 -1.3791
0 0.152732 -1.3791
0.00267952 0.152732 -1.3791
0.00535903 0.152732 -1.3791
0.00803855 0.152732 -1.3791
0.0107181 0.152732 -1.3791
0.0133976 0.152732 -1.3791
0.0160771 0.152732 -1.3791
0.0187566 0.152732 -1.3791
0.0214361 0.152732 -1.3791
0.0241156 0.152732 -1.3791
0.0267952 0.152732 -1.3791
0.0294747 0.152732 -1.3791
0.0321542 0.152732 -1.3791
0.0348337 0.152732 -1.3791
0.0375132 0.152732 -1.3791
0.0401927 0.152732 -1.3791
0.0428723 0.152732 -1.3791
0.0455518 0.152732 -1.3791
0.0482313 0.152732 -1.3791
0.0509108 0.152732 -1.3791
0.0535903 0.152732 -1.3791
0.0562698 0.152732 -1.3791
0.0589494 0.152732 -1.3791
0.0616289 0.152732 -1.3791
0.0643084 0.152732 -1.3791
0.0669879 0.152732 -1.3791
0.0696674 0.152732 -1.3791
0.0723469 0.152732 -1.3791
0.0750265 0.152732 -1.3791
0.077706 0.152732 -1.3791
0.0803855 0.152732 -1.3791
0.083065 0.152732 -1.3791
0.0857445 0.152732 -1.3791
0.088424 0.152732 -1.3791
0.0911035 0.152732 -1.3791
0.0937831 0.152732 -1.3791
0.0964626 0.152732 -1.3791
0.0991421 0.152732 -1.3791
0.101822 0.152732 -1.3791
0.104501 0.152732 -1.3791
0.107181 0.152732 -1.3791
0.10986 0.152732 -1.3791
0.11254 0.152732 -1.3791
0.115219 0.152732 -1.3791
0.117899 0.152732 -1.3791
0.120578 0.152732 -1.3791
0.123258 0.152732 -1.3791
0.125937 0.152732 -1.3791
0.128617 0.152732 -1.3791
0.131296 0.152732 -1.3791
0.133976 0.152732 -1.3791
0.136655 0.152732 -1.3791
0.139335 0.152732 -1.3791
0.142014 0.152732 -1.3791
0.144694 0.152732 -1.3791
0.147373 0.152732 -1.3791
0.150053 0.152732 -1.3791
0.152732 0.152732 -1.3791
0.155412 0.152732 -1.3791
0.158091 0.152732 -1.3791
0.160771 0.152732 -1.3791
0.16345 0.152732 -1.3791
0.16613 0.152732 -1.3791
0.16881 0.152732 -1.3791
0.171489 0.152732 -1.3791
0.174169 0.152732 -1.3791
0.176848 0.152732 -1.3791
0.179528 0.152732 -1.3791
0.182207 0.152732 -1.3791
0.184887 0.152732 -1.3791
0.187566 0.152732 -1.3791
0.190246 0.152732 -1.3791
0.192925 0.152732 -1.3791
0.195605 0.152732 -1.3791
0.198284 0.152732 -1.3791
0.200964 0.152732 -1.3791
0.203643 0.152732 -1.3791
0.206323 0.152732 -1.3791
0.209002 0.152732 -1.3791
0.211682 0.152732 -1.3791
0.214361 0.152732 -1.3791
0.217041 0.152732 -1.3791
0.21972 0.152732 -1.3791
0.2224 0.152732 -1.3791
0.225079 0.152732 -1.3791
0.227759 0.152732 -1.3791
0.230438 0.152732 -1.3791
0.233118 0.152732 -1.3791
0.235797 0.152732 -1.3791
0.238477 0.152732 -1.3791
0.241156 0.152732 -1.3791
0.243836 0.152732 -1.3791
0.246515 0.152732 -1.3791
0.249195 0.152732 -1.3791
0.251875 0.152732 -1.3791
0.254554 0.152732 -1.3791
0.257234 0.152732 -1.3791
0.259913 0.152732 -1.3791
0.262593 0.152732 -1.3791
0.265272 0.152732 -1.3791
0.267952 0.152732 -1.3791
0.270631 0.152732 -1.3791
0.273311 0.152732 -1.3791
0.27599 0.152732 -1.3791
0.27867 0.152732 -1.3791
0.281349 0.152732 -1.3791
0.284029 0.152732 -1.3791
0.286708 0.152732 -1.3791
0.289388 0.152732 -1.3791
0.292067 0.152732 -1.3791
0.294747 0.152732 -1.3791
0.297426 0.152732 -1.3791
0.300106 0.152732 -1.3791
0.302785 0.152732 -1.3791
0.305465 0.152732 -1.3791
0.308144 0.152732 -1.3791
0.310824 0.152732 -1.3791
0.313503 0.152732 -1.3791
0.316183 0.152732 -1.3791
0.318862 0.152732 -1.3791
0.321542 0.152732 -1.3791
0.324221 0.152732 -1.3791
0.326901 0.152732 -1.3791
0.32958 0.152732 -1.3791
0.33226 0.152732 -1.3791
0.33494 0.152732 -1.3791
0.337619 0.152732 -1.3791
0.340299 0.152732 -1.3791
0.342978 0.152732 -1.3791
0.345658 0.152732 -1.3791
0.348337 0.152732 -1.3791
0.351017 0.152732 -1.3791
0.353696 0.152732 -1.3791
0.356376 0.152732 -1.3791
0.359055 0.152732 -1.3791
0.361735 0.152732 -1.3791
0.364414 0.152732 -1.3791
0.367094 0.152732 -1.3791
0.369773 0.152732 -1.3791
0.372453 0.152732 -1.3791
0.375132 0.152732 -1.3791
0.377812 0.152732 -1.3791
0.380491 0.152732 -1.3791
0.383171 0.152732 -1.3791
0.38585 0.152732 -1.3791
0.38853 0.152732 -1.3791
0.391209 0.152732 -1.3791
0.393889 0.152732 -1.3791
0.396568 0.152732 -1.3791
-0.398904 0.155278 -1.37791
-0.396227 0.155278 -1.37791
-0.39355 0.155278 -1.37791
-0.390873 0.155278 -1.37791
-0.388196 0.155278 -1.37791
-0.385518 0.155278 -1.37791
-0.382841 0.155278 -1.37791
-0.380164 0.155278 -1.37791
-0.377487 0.155278 -1.37791
-0.37481 0.155278 -1.37791
-0.372132 0.155278 -1.37791
-0.369455 0.155278 -1.37791
-0.366778 0.155278 -1.37791
-0.364101 0.155278 -1.37791
-0.361423 0.155278 -1.37791
-0.358746 0.155278 -1.37791
-0.356069 0.155278 -1.37791
-0.353392 0.155278 -1.37791
-0.350715 0.155278 -1.37791
-0.348037 0.155278 -1.37791
-0.34536 0.155278 -1.37791
-0.342683 0.155278 -1.37791
-0.340006 0.155278 -1.37791
-0.337329 0.155278 -1.37791
-0.334651 0.155278 -1.37791
-0.331974 0.155278 -1.37791
-0.329297 0.155278 -1.37791
-0.32662 0.155278 -1.37791
-0.323943 0.155278 -1.37791
-0.321265 0.155278 -1.37791
-0.318588 0.155278 -1.37791
-0.315911 0.155278 -1.37791
-0.313234 0.155278 -1.37791
-0.310557 0.155278 -1.37791
-0.307879 0.155278 -1.37791
-0.305202 0.155278 -1.37791
-0.302525 0.155278 -1.37791
-0.299848 0.155278 -1.37791
-0.29717 0.155278 -1.37791
-0.294493 0.155278 -1.37791
-0.291816 0.155278 -1.37791
-0.289139 0.155278 -1.37791
-0.286462 0.155278 -1.37791
-0.283784 0.155278 -1.37791
-0.281107 0.155278 -1.37791
-0.27843 0.155278 -1.37791
-0.275753 0.155278 -1.37791
-0.273076 0.155278 -1.37791
-0.270398 0.155278 -1.37791
-0.267721 0.155278 -1.37791
-0.265044 0.155278 -1.37791
-0.262367 0.155278 -1.37791
-0.259689 0.155278 -1.37791
-0.257012 0.155278 -1.37791
-0.254335 0.155278 -1.37791
-0.251658 0.155278 -1.37791
-0.248981 0.155278 -1.37791
-0.246303 0.155278 -1.37791
-0.243626 0.155278 -1.37791
-0.240949 0.155278 -1.37791
-0.238272 0.155278 -1.37791
-0.235595 0.155278 -1.37791
-0.232917 0.155278 -1.37791
-0.23024 0.155278 -1.37791
-0.227563 0.155278 -1.37791
-0.224886 0.155278 -1.37791
-0.222209 0.155278 -1.37791
-0.219531 0.155278 -1.37791
-0.216854 0.155278 -1.37791
-0.214177 0.155278 -1.37791
-0.2115 0.155278 -1.37791
-0.208822 0.155278 -1.37791
-0.206145 0.155278 -1.37791
-0.203468 0.155278 -1.37791
-0.200791 0.155278 -1.37791
-0.198114 0.155278 -1.37791
-0.195436 0.155278 -1.37791
-0.192759 0.155278 -1.37791
-0.190082 0.155278 -1.37791
-0.187405 0.155278 -1.37791
-0.184728 0.155278 -1.37791
-0.18205 0.155278 -1.37791
-0.179373 0.155278 -1.37791
-0.176696 0.155278 -1.37791
-0.174019 0.155278 -1.37791
-0.171342 0.155278 -1.37791
-0.168664 0.155278 -1.37791
-0.165987 0.155278 -1.37791
-0.16331 0.155278 -1.37791
-0.160633 0.155278 -1.37791
-0.157955 0.155278 -1.37791
-0.155278 0.155278 -1.37791
-0.152601 0.155278 -1.37791
-0.149924 0.155278 -1.37791
-0.147247 0.155278 -1.37791
-0.144569 0.155278 -1.37791
-0.141892 0.155278 -1.37791
-0.139215 0.155278 -1.37791
-0.136538 0.155278 -1.37791
-0.133861 0.155278 -1.37791
-0.131183 0.155278 -1.37791
-0.128506 0.155278 -1.37791
-0.125829 0.155278 -1.37791
-0.123152 0.155278 -1.37791
-0.120475 0.155278 -1.37791
-0.117797 0.155278 -1.37791
-0.11512 0.155278 -1.37791
-0.112443 0.155278 -1.37791
-0.109766 0.155278 -1.37791
-0.107088 0.155278 -1.37791
-0.104411 0.155278 -1.37791
-0.101734 0.155278 -1.37791
-0.0990568 0.155278 -1.37791
-0.0963796 0.155278 -1.37791
-0.0937024 0.155278 -1.37791
-0.0910252 0.155278 -1.37791
-0.088348 0.155278 -1.37791
-0.0856708 0.155278 -1.37791
-0.0829935 0.155278 -1.37791
-0.0803163 0.155278 -1.37791
-0.0776391 0.155278 -1.37791
-0.0749619 0.155278 -1.37791
-0.0722847 0.155278 -1.37791
-0.0696075 0.155278 -1.37791
-0.0669303 0.155278 -1.37791
-0.0642531 0.155278 -1.37791
-0.0615759 0.155278 -1.37791
-0.0588986 0.155278 -1.37791
-0.0562214 0.155278 -1.37791
-0.0535442 0.155278 -1.37791
-0.050867 0.155278 -1.37791
-0.0481898 0.155278 -1.37791
-0.0455126 0.155278 -1.37791
-0.0428354 0.155278 -1.37791
-0.0401582 0.155278 -1.37791
-0.037481 0.155278 -1.37791
-0.0348037 0.155278 -1.37791
-0.0321265 0.155278 -1.37791
-0.0294493 0.155278 -1.37791
-0.0267721 0.155278 -1.37791
-0.0240949 0.155278 -1.37791
-0.0214177 0.155278 -1.37791
-0.0187405 0.155278 -1.37791
-0.0160633 0.155278 -1.37791
-0.0133861 0.155278 -1.37791
-0.0107088 0.155278 -1.37791
-0.00803163 0.155278 -1.37791
-0.00535442 0.155278 -1.37791
-0.00267721 0.155278 -1.37791
0 0.155278 -1.37791
0.00267721 0.155278 -1.37791
0.00535442 0.155278 -1.37791
0.00803163 0.155278 -1.37791
0.0107088 0.155278 -1.37791
0.0133861 0.155278 -1.37791
0.0160633 0.155278 -1.37791
0.0187405 0.155278 -1.37791
0.0214177 0.155278 -1.37791
0.0240949 0.155278 -1.37791
0.0267721 0.155278 -1.37791
0.0294493 0.155278 -1.37791
0.0321265 0.155278 -1.37791
0.0348037 0.155278 -1.37791
0.037481 0.155278 -1.37791
0.0401582 0.155278 -1.37791
0.0428354 0.155278 -1.37791
0.0455126 0.155278 -1.37791
0.0481898 0.155278 -1.37791
0.050867 0.155278 -1.37791
0.0535442 0.155278 -1.37791
0.0562214 0.155278 -1.37791
0.0588986 0.155278 -1.37791
0.0615759 0.155278 -1.37791
0.0642531 0.155278 -1.37791
0.0669303 0.155278 -1.37791
0.0696075 0.155278 -1.37791
0.0722847 0.155278 -1.37791
0.0749619 0.155278 -1.37791
0.0776391 0.155278 -1.37791
0.0803163 0.155278 -1.37791
0.0829935 0.155278 -1.37791
0.0856708 0.155278 -1.37791
0.088348 0.155278 -1.37791
0.0910252 0.155278 -1.37791
0.0937024 0.155278 -1.37791
0.0963796 0.155278 -1.37791
0.0990568 0.155278 -1.37791
0.101734 0.155278 -1.37791
0.104411 0.155278 -1.37791
0.107088 0.155278 -1.37791
0.109766 0.155278 -1.37791
0.112443 0.155278 -1.37791
0.11512 0.155278 -1.37791
0.117797 0.155278 -1.37791
0.120475 0.155278 -1.37791
0.123152 0.155278 -1.37791
0.125829 0.155278 -1.37791
0.128506 0.155278 -1.37791
0.131183 0.155278 -1.37791
0.133861 0.155278 -1.37791
0.136538 0.155278 -1.37791
0.139215 0.155278 -1.37791
0.141892 0.155278 -1.37791
0.144569 0.155278 -1.37791
0.147247 0.155278 -1.37791
0.149924 0.155278 -1.37791
0.152601 0.155278 -1.37791
0.155278 0.155278 -1.37791
0.157955 0.155278 -1.37791
0.160633 0.155278 -1.37791
0.16331 0.155278 -1.37791
0.165987 0.155278 -1.37791
0.168664 0.155278 -1.37791
0.171342 0.155278 -1.37791
0.174019 0.155278 -1.37791
0.176696 0.155278 -1.37791
0.179373 0.155278 -1.37791
0.18205 0.155278 -1.37791
0.184728 0.155278 -1.37791
0.187405 0.155278 -1.37791
0.190082 0.155278 -1.37791
0.192759 0.155278 -1.37791
0.195436 0.155278 -1.37791
0.198114 0.155278 -1.37791
0.200791 0.155278 -1.37791
0.203468 0.155278 -1.37791
0.206145 0.155278 -1.37791
0.208822 0.155278 -1.37791
0.2115 0.155278 -1.37791
0.214177 0.155278 -1.37791
0.216854 0.155278 -1.37791
0.219531 0.155278 -1.37791
0.222209 0.155278 -1.37791
0.224886 0.155278 -1.37791
0.227563 0.155278 -1.37791
0.23024 0.155278 -1.37791
0.232917 0.155278 -1.37791
0.235595 0.155278 -1.37791
0.238272 0.155278 -1.37791
0.240949 0.155278 -1.37791
0.243626 0.155278 -1.37791
0.246303 0.155278 -1.37791
0.248981 0.155278 -1.37791
0.251658 0.155278 -1.37791
0.254335 0.155278 -1.37791
0.257012 0.155278 -1.37791
0.259689 0.155278 -1.37791
0.262367 0.155278 -1.37791
0.265044 0.155278 -1.37791
0.267721 0.155278 -1.37791
0.270398 0.155278 -1.37791
0.273076 0.155278 -1.37791
0.275753 0.155278 -1.37791
0.27843 0.155278 -1.37791
0.281107 0.155278 -1.37791
0.283784 0.155278 -1.37791
0.286462 0.155278 -1.37791
0.289139 0.155278 -1.37791
0.291816 0.155278 -1.37791
0.294493 0.155278 -1.37791
0.29717 0.155278 -1.37791
0.299848 0.155278 -1.37791
0.302525 0.155278 -1.37791
0.305202 0.155278 -1.37791
0.307879 0.155278 -1.37791
0.310557 0.155278 -1.37791
0.313234 0.155278 -1.37791
0.315911 0.155278 -1.37791
0.318588 0.155278 -1.37791
0.321265 0.155278 -1.37791
0.323943 0.155278 -1.37791
0.32662 0.155278 -1.37791
0.329297 0.155278 -1.37791
0.331974 0.155278 -1.37791
0.334651 0.155278 -1.37791
0.337329 0.155278 -1.37791
0.340006 0.155278 -1.37791
0.342683 0.155278 -1.37791
0.34536 0.155278 -1.37791
0.348037 0.155278 -1.37791
0.350715 0.155278 -1.37791
0.353392 0.155278 -1.37791
0.356069 0.155278 -1.37791
0.358746 0.155278 -1.37791
0.361423 0.155278 -1.37791
0.364101 0.155278 -1.37791
0.366778 0.155278 -1.37791
0.369455 0.155278 -1.37791
0.372132 0.155278 -1.37791
0.37481 0.155278 -1.37791
0.377487 0.155278 -1.37791
0.380164 0.155278 -1.37791
0.382841 0.155278 -1.37791
0.385518 0.155278 -1.37791
0.388196 0.155278 -1.37791
0.390873 0.155278 -1.37791
0.39355 0.155278 -1.37791
0.396227 0.155278 -1.37791
-0.401236 0.15782 -1.37673
-0.398561 0.15782 -1.37673
-0.395886 0.15782 -1.37673
-0.393211 0.15782 -1.37673
-0.390537 0.15782 -1.37673
-0.387862 0.15782 -1.37673
-0.385187 0.15782 -1.37673
-0.382512 0.15782 -1.37673
-0.379837 0.15782 -1.37673
-0.377162 0.15782 -1.37673
-0.374487 0.15782 -1.37673
-0.371812 0.15782 -1.37673
-0.369137 0.15782 -1.37673
-0.366462 0.15782 -1.37673
-0.363787 0.15782 -1.37673
-0.361113 0.15782 -1.37673
-0.358438 0.15782 -1.37673
-0.355763 0.15782 -1.37673
-0.353088 0.15782 -1.37673
-0.350413 0.15782 -1.37673
-0.347738 0.15782 -1.37673
-0.345063 0.15782 -1.37673
-0.342388 0.15782 -1.37673
-0.339713 0.15782 -1.37673
-0.337038 0.15782 -1.37673
-0.334363 0.15782 -1.37673
-0.331689 0.15782 -1.37673
-0.329014 0.15782 -1.37673
-0.326339 0.15782 -1.37673
-0.323664 0.15782 -1.37673
-0.320989 0.15782 -1.37673
-0.318314 0.15782 -1.37673
-0.315639 0.15782 -1.37673
-0.312964 0.15782 -1.37673
-0.310289 0.15782 -1.37673
-0.307614 0.15782 -1.37673
-0.30494 0.15782 -1.37673
-0.302265 0.15782 -1.37673
-0.29959 0.15782 -1.37673
-0.296915 0.15782 -1.37673
-0.29424 0.15782 -1.37673
-0.291565 0.15782 -1.37673
-0.28889 0.15782 -1.37673
-0.286215 0.15782 -1.37673
-0.28354 0.15782 -1.37673
-0.280865 0.15782 -1.37673
-0.27819 0.15782 -1.37673
-0.275516 0.15782 -1.37673
-0.272841 0.15782 -1.37673
-0.270166 0.15782 -1.37673
-0.267491 0.15782 -1.37673
-0.264816 0.15782 -1.37673
-0.262141 0.15782 -1.37673
-0.259466 0.15782 -1.37673
-0.256791 0.15782 -1.37673
-0.254116 0.15782 -1.37673
-0.251441 0.15782 -1.37673
-0.248766 0.15782 -1.37673
-0.246092 0.15782 -1.37673
-0.243417 0.15782 -1.37673
-0.240742 0.15782 -1.37673
-0.238067 0.15782 -1.37673
-0.235392 0.15782 -1.37673
-0.232717 0.15782 -1.37673
-0.230042 0.15782 -1.37673
-0.227367 0.15782 -1.37673
-0.224692 0.15782 -1.37673
-0.222017 0.15782 -1.37673
-0.219342 0.15782 -1.37673
-0.216668 0.15782 -1.37673
-0.213993 0.15782 -1.37673
-0.211318 0.15782 -1.37673
-0.208643 0.15782 -1.37673
-0.205968 0.15782 -1.37673
-0.203293 0.15782 -1.37673
-0.200618 0.15782 -1.37673
-0.197943 0.15782 -1.37673
-0.195268 0.15782 -1.37673
-0.192593 0.15782 -1.37673
-0.189918 0.15782 -1.37673
-0.187244 0.15782 -1.37673
-0.184569 0.15782 -1.37673
-0.181894 0.15782 -1.37673
-0.179219 0.15782 -1.37673
-0.176544 0.15782 -1.37673
-0.173869 0.15782 -1.37673
-0.171194 0.15782 -1.37673
-0.168519 0.15782 -1.37673
-0.165844 0.15782 -1.37673
-0.163169 0.15782 -1.37673
-0.160494 0.15782 -1.37673
-0.15782 0.15782 -1.37673
-0.155145 0.15782 -1.37673
-0.15247 0.15782 -1.37673
-0.149795 0.15782 -1.37673
-0.14712 0.15782 -1.37673
-0.144445 0.15782 -1.37673
-0.14177 0.15782 -1.37673
-0.139095 0.15782 -1.37673
-0.13642 0.15782 -1.37673
-0.133745 0.15782 -1.37673
-0.13107 0.15782 -1.37673
-0.128396 0.15782 -1.37673
-0.125721 0.15782 -1.37673
-0.123046 0.15782 -1.37673
-0.120371 0.15782 -1.37673
-0.117696 0.15782 -1.37673
-0.115021 0.15782 -1.37673
-0.112346 0.15782 -1.37673
-0.109671 0.15782 -1.37673
-0.106996 0.15782 -1.37673
-0.104321 0.15782 -1.37673
-0.101646 0.15782 -1.37673
-0.0989716 0.15782 -1.37673
-0.0962967 0.15782 -1.37673
-0.0936218 0.15782 -1.37673
-0.0909469 0.15782 -1.37673
-0.088272 0.15782 -1.37673
-0.0855971 0.15782 -1.37673
-0.0829221 0.15782 -1.37673
-0.0802472 0.15782 -1.37673
-0.0775723 0.15782 -1.37673
-0.0748974 0.15782 -1.37673
-0.0722225 0.15782 -1.37673
-0.0695476 0.15782 -1.37673
-0.0668727 0.15782 -1.37673
-0.0641978 0.15782 -1.37673
-0.0615229 0.15782 -1.37673
-0.058848 0.15782 -1.37673
-0.0561731 0.15782 -1.37673
-0.0534982 0.15782 -1.37673
-0.0508232 0.15782 -1.37673
-0.0481483 0.15782 -1.37673
-0.0454734 0.15782 -1.37673
-0.0427985 0.15782 -1.37673
-0.0401236 0.15782 -1.37673
-0.0374487 0.15782 -1.37673
-0.0347738 0.15782 -1.37673
-0.0320989 0.15782 -1.37673
-0.029424 0.15782 -1.37673
-0.0267491 0.15782 -1.37673
-0.0240742 0.15782 -1.37673
-0.0213993 0.15782 -1.37673
-0.0187244 0.15782 -1.37673
-0.0160494 0.15782 -1.37673
-0.0133745 0.15782 -1.37673
-0.0106996 0.15782 -1.37673
-0.00802472 0.15782 -1.37673
-0.00534982 0.15782 -1.37673
-0.00267491 0.15782 -1.37673
0 0.15782 -1.37673
0.00267491 0.15782 -1.37673
0.00534982 0.15782 -1.37673
0.00802472 0.15782 -1.37673
0.0106996 0.15782 -1.37673
0.0133745 0.15782 -1.37673
0.0160494 0.15782 -1.37673
0.0187244 0.15782 -1.37673
0.0213993 0.15782 -1.37673
0.0240742 0.15782 -1.37673
0.0267491 0.15782 -1.37673
0.029424 0.15782 -1.37673
0.0320989 0.15782 -1.37673
0.0347738 0.15782 -1.37673
0.0374487 0.15782 -1.37673
0.0401236 0.15782 -1.37673
0.0427985 0.15782 -1.37673
0.0454734 0.15782 -1.37673
0.0481483 0.15782 -1.37673
0.0508232 0.15782 -1.37673
0.0534982 0.15782 -1.37673
0.0561731 0.15782 -1.37673
0.058848 0.15782 -1.37673
0.0615229 0.15782 -1.37673
0.0641978 0.15782 -1.37673
0.0668727 0.15782 -1.37673
0.0695476 0.15782 -1.37673
0.0722225 0.15782 -1.37673
0.0748974 0.15782 -1.37673
0.0775723 0.15782 -1.37673
0.0802472 0.15782 -1.37673
0.0829221 0.15782 -1.37673
0.0855971 0.15782 -1.37673
0.088272 0.15782 -1.37673
0.0909469 0.15782 -1.37673
0.0936218 0.15782 -1.37673
0.0962967 0.15782 -1.37673
0.0989716 0.15782 -1.37673
0.101646 0.15782 -1.37673
0.104321 0.15782 -1.37673
0.106996 0.15782 -1.37673
0.109671 0.15782 -1.37673
0.112346 0.15782 -1.37673
0.115021 0.15782 -1.37673
0.117696 0.15782 -1.37673
0.120371 0.15782 -1.37673
0.123046 0.15782 -1.37673
0.125721 0.15782 -1.37673
0.128396 0.15782 -1.37673
0.13107 0.15782 -1.37673
0.133745 0.15782 -1.37673
0.13642 0.15782 -1.37673
0.139095 0.15782 -1.37673
0.14177 0.15782 -1.37673
0.144445 0.15782 -1.37673
0.14712 0.15782 -1.37673
0.149795 0.15782 -1.37673
0.15247 0.15782 -1.37673
0.155145 0.15782 -1.37673
0.15782 0.15782 -1.37673
0.160494 0.15782 -1.37673
0.163169 0.15782 -1.37673
0.165844 0.15782 -1.37673
0.168519 0.15782 -1.37673
0.171194 0.15782 -1.37673
0.173869 0.15782 -1.37673
0.176544 0.15782 -1.37673
0.179219 0.15782 -1.37673
0.181894 0.15782 -1.37673
0.184569 0.15782 -1.37673
0.187244 0.15782 -1.37673
0.189918 0.15782 -1.37673
0.192593 0.15782 -1.37673
0.195268 0.15782 -1.37673
0.197943 0.15782 -1.37673
0.200618 0.15782 -1.37673
0.203293 0.15782 -1.37673
0.205968 0.15782 -1.37673
0.208643 0.15782 -1.37673
0.211318 0.15782 -1.37673
0.213993 0.15782 -1.37673
0.216668 0.15782 -1.37673
0.219342 0.15782 -1.37673
0.222017 0.15782 -1.37673
0.224692 0.15782 -1.37673
0.227367 0.15782 -1.37673
0.230042 0.15782 -1.37673
0.232717 0.15782 -1.37673
0.235392 0.15782 -1.37673
0.238067 0.15782 -1.37673
0.240742 0.15782 -1.37673
0.243417 0.15782 -1.37673
0.246092 0.15782 -1.37673
0.248766 0.15782 -1.37673
0.251441 0.15782 -1.37673
0.254116 0.15782 -1.37673
0.256791 0.15782 -1.37673
0.259466 0.15782 -1.37673
0.262141 0.15782 -1.37673
0.264816 0.15782 -1.37673
0.267491 0.15782 -1.37673
0.270166 0.15782 -1.37673
0.272841 0.15782 -1.37673
0.275516 0.15782 -1.37673
0.27819 0.15782 -1.37673
0.280865 0.15782 -1.37673
0.28354 0.15782 -1.37673
0.286215 0.15782 -1.37673
0.28889 0.15782 -1.37673
0.291565 0.15782 -1.37673
0.29424 0.15782 -1.37673
0.296915 0.15782 -1.37673
0.29959 0.15782 -1.37673
0.302265 0.15782 -1.37673
0.30494 0.15782 -1.37673
0.307614 0.15782 -1.37673
0.310289 0.15782 -1.37673
0.312964 0.15782 -1.37673
0.315639 0.15782 -1.37673
0.318314 0.15782 -1.37673
0.320989 0.15782 -1.37673
0.323664 0.15782 -1.37673
0.326339 0.15782 -1.37673
0.329014 0.15782 -1.37673
0.331689 0.15782 -1.37673
0.334363 0.15782 -1.37673
0.337038 0.15782 -1.37673
0.339713 0.15782 -1.37673
0.342388 0.15782 -1.37673
0.345063 0.15782 -1.37673
0.347738 0.15782 -1.37673
0.350413 0.15782 -1.37673
0.353088 0.15782 -1.37673
0.355763 0.15782 -1.37673
0.358438 0.15782 -1.37673
0.361113 0.15782 -1.37673
0.363787 0.15782 -1.37673
0.366462 0.15782 -1.37673
0.369137 0.15782 -1.37673
0.371812 0.15782 -1.37673
0.374487 0.15782 -1.37673
0.377162 0.15782 -1.37673
0.379837 0.15782 -1.37673
0.382512 0.15782 -1.37673
0.385187 0.15782 -1.37673
0.387862 0.15782 -1.37673
0.390537 0.15782 -1.37673
0.393211 0.15782 -1.37673
0.395886 0.15782 -1.37673
0.398561 0.15782 -1.37673
-0.400892 0.160357 -1.37554
-0.398219 0.160357 -1.37554
-0.395546 0.160357 -1.37554
-0.392874 0.160357 -1.37554
-0.390201 0.160357 -1.37554
-0.387529 0.160357 -1.37554
-0.384856 0.160357 -1.37554
-0.382183 0.160357 -1.37554
-0.379511 0.160357 -1.37554
-0.376838 0.160357 -1.37554
-0.374166 0.160357 -1.37554
-0.371493 0.160357 -1.37554
-0.36882 0.160357 -1.37554
-0.366148 0.160357 -1.37554
-0.363475 0.160357 -1.37554
-0.360802 0.160357 -1.37554
-0.35813 0.160357 -1.37554
-0.355457 0.160357 -1.37554
-0.352785 0.160357 -1.37554
-0.350112 0.160357 -1.37554
-0.347439 0.160357 -1.37554
-0.344767 0.160357 -1.37554
-0.342094 0.160357 -1.37554
-0.339422 0.160357 -1.37554
-0.336749 0.160357 -1.37554
-0.334076 0.160357 -1.37554
-0.331404 0.160357 -1.37554
-0.328731 0.160357 -1.37554
-0.326059 0.160357 -1.37554
-0.323386 0.160357 -1.37554
-0.320713 0.160357 -1.37554
-0.318041 0.160357 -1.37554
-0.315368 0.160357 -1.37554
-0.312695 0.160357 -1.37554
-0.310023 0.160357 -1.37554
-0.30735 0.160357 -1.37554
-0.304678 0.160357 -1.37554
-0.302005 0.160357 -1.37554
-0.299332 0.160357 -1.37554
-0.29666 0.160357 -1.37554
-0.293987 0.160357 -1.37554
-0.291315 0.160357 -1.37554
-0.288642 0.160357 -1.37554
-0.285969 0.160357 -1.37554
-0.283297 0.160357 -1.37554
-0.280624 0.160357 -1.37554
-0.277952 0.160357 -1.37554
-0.275279 0.160357 -1.37554
-0.272606 0.160357 -1.37554
-0.269934 0.160357 -1.37554
-0.267261 0.160357 -1.37554
-0.264588 0.160357 -1.37554
-0.261916 0.160357 -1.37554
-0.259243 0.160357 -1.37554
-0.256571 0.160357 -1.37554
-0.253898 0.160357 -1.37554
-0.251225 0.160357 -1.37554
-0.248553 0.160357 -1.37554
-0.24588 0.160357 -1.37554
-0.243208 0.160357 -1.37554
-0.240535 0.160357 -1.37554
-0.237862 0.160357 -1.37554
-0.23519 0.160357 -1.37554
-0.232517 0.160357 -1.37554
-0.229845 0.160357 -1.37554
-0.227172 0.160357 -1.37554
-0.224499 0.160357 -1.37554
-0.221827 0.160357 -1.37554
-0.219154 0.160357 -1.37554
-0.216481 0.160357 -1.37554
-0.213809 0.160357 -1.37554
-0.211136 0.160357 -1.37554
-0.208464 0.160357 -1.37554
-0.205791 0.160357 -1.37554
-0.203118 0.160357 -1.37554
-0.200446 0.160357 -1.37554
-0.197773 0.160357 -1.37554
-0.195101 0.160357 -1.37554
-0.192428 0.160357 -1.37554
-0.189755 0.160357 -1.37554
-0.187083 0.160357 -1.37554
-0.18441 0.160357 -1.37554
-0.181738 0.160357 -1.37554
-0.179065 0.160357 -1.37554
-0.176392 0.160357 -1.37554
-0.17372 0.160357 -1.37554
-0.171047 0.160357 -1.37554
-0.168374 0.160357 -1.37554
-0.165702 0.160357 -1.37554
-0.163029 0.160357 -1.37554
-0.160357 0.160357 -1.37554
-0.157684 0.160357 -1.37554
-0.155011 0.160357 -1.37554
-0.152339 0.160357 -1.37554
-0.149666 0.160357 -1.37554
-0.146994 0.160357 -1.37554
-0.144321 0.160357 -1.37554
-0.141648 0.160357 -1.37554
-0.138976 0.160357 -1.37554
-0.136303 0.160357 -1.37554
-0.133631 0.160357 -1.37554
-0.130958 0.160357 -1.37554
-0.128285 0.160357 -1.37554
-0.125613 0.160357 -1.37554
-0.12294 0.160357 -1.37554
-0.120267 0.160357 -1.37554
-0.117595 0.160357 -1.37554
-0.114922 0.160357 -1.37554
-0.11225 0.160357 -1.37554
-0.109577 0.160357 -1.37554
-0.106904 0.160357 -1.37554
-0.104232 0.160357 -1.37554
-0.101559 0.160357 -1.37554
-0.0988866 0.160357 -1.37554
-0.096214 0.160357 -1.37554
-0.0935414 0.160357 -1.37554
-0.0908688 0.160357 -1.37554
-0.0881962 0.160357 -1.37554
-0.0855235 0.160357 -1.37554
-0.0828509 0.160357 -1.37554
-0.0801783 0.160357 -1.37554
-0.0775057 0.160357 -1.37554
-0.0748331 0.160357 -1.37554
-0.0721605 0.160357 -1.37554
-0.0694879 0.160357 -1.37554
-0.0668153 0.160357 -1.37554
-0.0641427 0.160357 -1.37554
-0.06147 0.160357 -1.37554
-0.0587974 0.160357 -1.37554
-0.0561248 0.160357 -1.37554
-0.0534522 0.160357 -1.37554
-0.0507796 0.160357 -1.37554
-0.048107 0.160357 -1.37554
-0.0454344 0.160357 -1.37554
-0.0427618 0.160357 -1.37554
-0.0400892 0.160357 -1.37554
-0.0374166 0.160357 -1.37554
-0.0347439 0.160357 -1.37554
-0.0320713 0.160357 -1.37554
-0.0293987 0.160357 -1.37554
-0.0267261 0.160357 -1.37554
-0.0240535 0.160357 -1.37554
-0.0213809 0.160357 -1.37554
-0.0187083 0.160357 -1.37554
-0.0160357 0.160357 -1.37554
-0.0133631 0.160357 -1.37554
-0.0106904 0.160357 -1.37554
-0.00801783 0.160357 -1.37554
-0.00534522 0.160357 -1.37554
-0.00267261 0.160357 -1.37554
0 0.160357 -1.37554
0.00267261 0.160357 -1.37554
0.00534522 0.160357 -1.37554
0.00801783 0.160357 -1.37554
0.0106904 0.160357 -1.37554
0.0133631 0.160357 -1.37554
0.0160357 0.160357 -1.37554
0.0187083 0.160357 -1.37554
0.0213809 0.160357 -1.37554
0.0240535 0.160357 -1.37554
0.0267261 0.160357 -1.37554
0.0293987 0.160357 -1.37554
0.0320713 0.160357 -1.37554
0.0347439 0.160357 -1.37554
0.0374166 0.160357 -1.37554
0.0400892 0.160357 -1.37554
0.0427618 0.160357 -1.37554
0.0454344 0.160357 -1.37554
0.048107 0.160357 -1.37554
0.0507796 0.160357 -1.37554
0.0534522 0.160357 -1.37554
0.0561248 0.160357 -1.37554
0.0587974 0.160357 -1.37554
0.06147 0.160357 -1.37554
0.0641427 0.160357 -1.37554
0.0668153 0.160357 -1.37554
0.0694879 0.160357 -1.37554
0.0721605 0.160357 -1.37554
0.0748331 0.160357 -1.37554
0.0775057 0.160357 -1.37554
0.0801783 0.160357 -1.37554
0.0828509 0.160357 -1.37554
0.0855235 0.160357 -1.37554
0.0881962 0.160357 -1.37554
0.0908688 0.160357 -1.37554
0.0935414 0.160357 -1.37554
0.096214 0.160357 -1.37554
0.0988866 0.160357 -1.37554
0.101559 0.160357 -1.37554
0.104232 0.160357 -1.37554
0.106904 0.160357 -1.37554
0.109577 0.160357 -1.37554
0.11225 0.160357 -1.37554
0.114922 0.160357 -1.37554
0.117595 0.160357 -1.37554
0.120267 0.160357 -1.37554
0.12294 0.160357 -1.37554
0.125613 0.160357 -1.37554
0.128285 0.160357 -1.37554
0.130958 0.160357 -1.37554
0.133631 0.160357 -1.37554
0.136303 0.160357 -1.37554
0.138976 0.160357 -1.37554
0.141648 0.160357 -1.37554
0.144321 0.160357 -1.37554
0.146994 0.160357 -1.37554
0.149666 0.160357 -1.37554
0.152339 0.160357 -1.37554
0.155011 0.160357 -1.37554
0.157684 0.160357 -1.37554
0.160357 0.160357 -1.37554
0.163029 0.160357 -1.37554
0.165702 0.160357 -1.37554
0.168374 0.160357 -1.37554
0.171047 0.160357 -1.37554
0.17372 0.160357 -1.37554
0.176392 0.160357 -1.37554
0.179065 0.160357 -1.37554
0.181738 0.160357 -1.37554
0.18441 0.160357 -1.37554
0.187083 0.160357 -1.37554
0.189755 0.160357 -1.37554
0.192428 0.160357 -1.37554
0.195101 0.160357 -1.37554
0.197773 0.160357 -1.37554
0.200446 0.160357 -1.37554
0.203118 0.160357 -1.37554
0.205791 0.160357 -1.37554
0.208464 0.160357 -1.37554
0.211136 0.160357 -1.37554
0.213809 0.160357 -1.37554
0.216481 0.160357 -1.37554
0.219154 0.160357 -1.37554
0.221827 0.160357 -1.37554
0.224499 0.160357 -1.37554
0.227172 0.160357 -1.37554
0.229845 0.160357 -1.37554
0.232517 0.160357 -1.37554
0.23519 0.160357 -1.37554
0.237862 0.160357 -1.37554
0.240535 0.160357 -1.37554
0.243208 0.160357 -1.37554
0.24588 0.160357 -1.37554
0.248553 0.160357 -1.37554
0.251225 0.160357 -1.37554
0.253898 0.160357 -1.37554
0.256571 0.160357 -1.37554
0.259243 0.160357 -1.37554
0.261916 0.160357 -1.37554
0.264588 0.160357 -1.37554
0.267261 0.160357 -1.37554
0.269934 0.160357 -1.37554
0.272606 0.160357 -1.37554
0.275279 0.160357 -1.37554
0.277952 0.160357 -1.37554
0.280624 0.160357 -1.37554
0.283297 0.160357 -1.37554
0.285969 0.160357 -1.37554
0.288642 0.160357 -1.37554
0.291315 0.160357 -1.37554
0.293987 0.160357 -1.37554
0.29666 0.160357 -1.37554
0.299332 0.160357 -1.37554
0.302005 0.160357 -1.37554
0.304678 0.160357 -1.37554
0.30735 0.160357 -1.37554
0.310023 0.160357 -1.37554
0.312695 0.160357 -1.37554
0.315368 0.160357 -1.37554
0.318041 0.160357 -1.37554
0.320713 0.160357 -1.37554
0.323386 0.160357 -1.37554
0.326059 0.160357 -1.37554
0.328731 0.160357 -1.37554
0.331404 0.160357 -1.37554
0.334076 0.160357 -1.37554
0.336749 0.160357 -1.37554
0.339422 0.160357 -1.37554
0.342094 0.160357 -1.37554
0.344767 0.160357 -1.37554
0.347439 0.160357 -1.37554
0.350112 0.160357 -1.37554
0.352785 0.160357 -1.37554
0.355457 0.160357 -1.37554
0.35813 0.160357 -1.37554
0.360802 0.160357 -1.37554
0.363475 0.160357 -1.37554
0.366148 0.160357 -1.37554
0.36882 0.160357 -1.37554
0.371493 0.160357 -1.37554
0.374166 0.160357 -1.37554
0.376838 0.160357 -1.37554
0.379511 0.160357 -1.37554
0.382183 0.160357 -1.37554
0.384856 0.160357 -1.37554
0.387529 0.160357 -1.37554
0.390201 0.160357 -1.37554
0.392874 0.160357 -1.37554
0.395546 0.160357 -1.37554
0.398219 0.160357 -1.37554
-0.398805 0.163269 -1.37757
-0.396128 0.163269 -1.37757
-0.393452 0.163269 -1.37757
-0.390775 0.163269 -1.37757
-0.388099 0.163269 -1.37757
-0.385422 0.163269 -1.37757
-0.382746 0.163269 -1.37757
-0.380069 0.163269 -1.37757
-0.377393 0.163269 -1.37757
-0.374716 0.163269 -1.37757
-0.372039 0.163269 -1.37757
-0.369363 0.163269 -1.37757
-0.366686 0.163269 -1.37757
-0.36401 0.163269 -1.37757
-0.361333 0.163269 -1.37757
-0.358657 0.163269 -1.37757
-0.35598 0.163269 -1.37757
-0.353304 0.163269 -1.37757
-0.350627 0.163269 -1.37757
-0.347951 0.163269 -1.37757
-0.345274 0.163269 -1.37757
-0.342598 0.163269 -1.37757
-0.339921 0.163269 -1.37757
-0.337244 0.163269 -1.37757
-0.334568 0.163269 -1.37757
-0.331891 0.163269 -1.37757
-0.329215 0.163269 -1.37757
-0.326538 0.163269 -1.37757
-0.323862 0.163269 -1.37757
-0.321185 0.163269 -1.37757
-0.318509 0.163269 -1.37757
-0.315832 0.163269 -1.37757
-0.313156 0.163269 -1.37757
-0.310479 0.163269 -1.37757
-0.307802 0.163269 -1.37757
-0.305126 0.163269 -1.37757
-0.302449 0.163269 -1.37757
-0.299773 0.163269 -1.37757
-0.297096 0.163269 -1.37757
-0.29442 0.163269 -1.37757
-0.291743 0.163269 -1.37757
-0.289067 0.163269 -1.37757
-0.28639 0.163269 -1.37757
-0.283714 0.163269 -1.37757
-0.281037 0.163269 -1.37757
-0.27836 0.163269 -1.37757
-0.275684 0.163269 -1.37757
-0.273007 0.163269 -1.37757
-0.270331 0.163269 -1.37757
-0.267654 0.163269 -1.37757
-0.264978 0.163269 -1.37757
-0.262301 0.163269 -1.37757
-0.259625 0.163269 -1.37757
-0.256948 0.163269 -1.37757
-0.254272 0.163269 -1.37757
-0.251595 0.163269 -1.37757
-0.248919 0.163269 -1.37757
-0.246242 0.163269 -1.37757
-0.243565 0.163269 -1.37757
-0.240889 0.163269 -1.37757
-0.238212 0.163269 -1.37757
-0.235536 0.163269 -1.37757
-0.232859 0.163269 -1.37757
-0.230183 0.163269 -1.37757
-0.227506 0.163269 -1.37757
-0.22483 0.163269 -1.37757
-0.222153 0.163269 -1.37757
-0.219477 0.163269 -1.37757
-0.2168 0.163269 -1.37757
-0.214123 0.163269 -1.37757
-0.211447 0.163269 -1.37757
-0.20877 0.163269 -1.37757
-0.206094 0.163269 -1.37757
-0.203417 0.163269 -1.37757
-0.200741 0.163269 -1.37757
-0.198064 0.163269 -1.37757
-0.195388 0.163269 -1.37757
-0.192711 0.163269 -1.37757
-0.190035 0.163269 -1.37757
-0.187358 0.163269 -1.37757
-0.184681 0.163269 -1.37757
-0.182005 0.163269 -1.37757
-0.179328 0.163269 -1.37757
-0.176652 0.163269 -1.37757
-0.173975 0.163269 -1.37757
-0.171299 0.163269 -1.37757
-0.168622 0.163269 -1.37757
-0.165946 0.163269 -1.37757
-0.163269 0.163269 -1.37757
-0.160593 0.163269 -1.37757
-0.157916 0.163269 -1.37757
-0.155239 0.163269 -1.37757
-0.152563 0.163269 -1.37757
-0.149886 0.163269 -1.37757
-0.14721 0.163269 -1.37757
-0.144533 0.163269 -1.37757
-0.141857 0.163269 -1.37757
-0.13918 0.163269 -1.37757
-0.136504 0.163269 -1.37757
-0.133827 0.163269 -1.37757
-0.131151 0.163269 -1.37757
-0.128474 0.163269 -1.37757
-0.125798 0.163269 -1.37757
-0.123121 0.163269 -1.37757
-0.120444 0.163269 -1.37757
-0.117768 0.163269 -1.37757
-0.115091 0.163269 -1.37757
-0.112415 0.163269 -1.37757
-0.109738 0.163269 -1.37757
-0.107062 0.163269 -1.37757
-0.104385 0.163269 -1.37757
-0.101709 0.163269 -1.37757
-0.0990321 0.163269 -1.37757
-0.0963555 0.163269 -1.37757
-0.093679 0.163269 -1.37757
-0.0910025 0.163269 -1.37757
-0.0883259 0.163269 -1.37757
-0.0856494 0.163269 -1.37757
-0.0829728 0.163269 -1.37757
-0.0802963 0.163269 -1.37757
-0.0776197 0.163269 -1.37757
-0.0749432 0.163269 -1.37757
-0.0722667 0.163269 -1.37757
-0.0695901 0.163269 -1.37757
-0.0669136 0.163269 -1.37757
-0.064237 0.163269 -1.37757
-0.0615605 0.163269 -1.37757
-0.0588839 0.163269 -1.37757
-0.0562074 0.163269 -1.37757
-0.0535309 0.163269 -1.37757
-0.0508543 0.163269 -1.37757
-0.0481778 0.163269 -1.37757
-0.0455012 0.163269 -1.37757
-0.0428247 0.163269 -1.37757
-0.0401481 0.163269 -1.37757
-0.0374716 0.163269 -1.37757
-0.0347951 0.163269 -1.37757
-0.0321185 0.163269 -1.37757
-0.029442 0.163269 -1.37757
-0.0267654 0.163269 -1.37757
-0.0240889 0.163269 -1.37757
-0.0214123 0.163269 -1.37757
-0.0187358 0.163269 -1.37757
-0.0160593 0.163269 -1.37757
-0.0133827 0.163269 -1.37757
-0.0107062 0.163269 -1.37757
-0.00802963 0.163269 -1.37757
-0.00535309 0.163269 -1.37757
-0.00267654 0.163269 -1.37757
0 0.163269 -1.37757
0.00267654 0.163269 -1.37757
0.00535309 0.163269 -1.37757
0.00802963 0.163269 -1.37757
0.0107062 0.163269 -1.37757
0.0133827 0.163269 -1.37757
0.0160593 0.163269 -1.37757
0.0187358 0.163269 -1.37757
0.0214123 0.163269 -1.37757
0.0240889 0.163269 -1.37757
0.0267654 0.163269 -1.37757
0.029442 0.163269 -1.37757
0.0321185 0.163269 -1.37757
0.0347951 0.163269 -1.37757
0.0374716 0.163269 -1.37757
0.0401481 0.163269 -1.37757
0.0428247 0.163269 -1.37757
0.0455012 0.163269 -1.37757
0.0481778 0.163269 -1.37757
0.0508543 0.163269 -1.37757
0.0535309 0.163269 -1.37757
0.0562074 0.163269 -1.37757
0.0588839 0.163269 -1.37757
0.0615605 0.163269 -1.37757
0.064237 0.163269 -1.37757
0.0669136 0.163269 -1.37757
0.0695901 0.163269 -1.37757
0.0722667 0.163269 -1.37757
0.0749432 0.163269 -1.37757
0.0776197 0.163269 -1.37757
0.0802963 0.163269 -1.37757
0.0829728 0.163269 -1.37757
0.0856494 0.163269 -1.37757
0.0883259 0.163269 -1.37757
0.0910025 0.163269 -1.37757
0.093679 0.163269 -1.37757
0.0963555 0.163269 -1.37757
0.0990321 0.163269 -1.37757
0.101709 0.163269 -1.37757
0.104385 0.163269 -1.37757
0.107062 0.163269 -1.37757
0.109738 0.163269 -1.37757
0.112415 0.163269 -1.37757
0.115091 0.163269 -1.37757
0.117768 0.163269 -1.37757
0.120444 0.163269 -1.37757
0.123121 0.163269 -1.37757
0.125798 0.163269 -1.37757
0.128474 0.163269 -1.37757
0.131151 0.163269 -1.37757
0.133827 0.163269 -1.37757
0.136504 0.163269 -1.37757
0.13918 0.163269 -1.37757
0.141857 0.163269 -1.37757
0.144533 0.163269 -1.37757
0.14721 0.163269 -1.37757
0.149886 0.163269 -1.37757
0.152563 0.163269 -1.37757
0.155239 0.163269 -1.37757
0.157916 0.163269 -1.37757
0.160592 0.163269 -1.37757
0.163269 0.163269 -1.37757
0.165946 0.163269 -1.37757
0.168622 0.163269 -1.37757
0.171299 0.163269 -1.37757
0.173975 0.163269 -1.37757
0.176652 0.163269 -1.37757
0.179328 0.163269 -1.37757
0.182005 0.163269 -1.37757
0.184681 0.163269 -1.37757
0.187358 0.163269 -1.37757
0.190034 0.163269 -1.37757
0.192711 0.163269 -1.37757
0.195387 0.163269 -1.37757
0.198064 0.163269 -1.37757
0.200741 0.163269 -1.37757
0.203417 0.163269 -1.37757
0.206094 0.163269 -1.37757
0.20877 0.163269 -1.37757
0.211447 0.163269 -1.37757
0.214123 0.163269 -1.37757
0.2168 0.163269 -1.37757
0.219476 0.163269 -1.37757
0.222153 0.163269 -1.37757
0.224829 0.163269 -1.37757
0.227506 0.163269 -1.37757
0.230183 0.163269 -1.37757
0.232859 0.163269 -1.37757
0.235536 0.163269 -1.37757
0.238212 0.163269 -1.37757
0.240889 0.163269 -1.37757
0.243565 0.163269 -1.37757
0.246242 0.163269 -1.37757
0.248918 0.163269 -1.37757
0.251595 0.163269 -1.37757
0.254271 0.163269 -1.37757
0.256948 0.163269 -1.37757
0.259624 0.163269 -1.37757
0.262301 0.163269 -1.37757
0.264978 0.163269 -1.37757
0.267654 0.163269 -1.37757
0.270331 0.163269 -1.37757
0.273007 0.163269 -1.37757
0.275684 0.163269 -1.37757
0.27836 0.163269 -1.37757
0.281037 0.163269 -1.37757
0.283713 0.163269 -1.37757
0.28639 0.163269 -1.37757
0.289066 0.163269 -1.37757
0.291743 0.163269 -1.37757
0.294419 0.163269 -1.37757
0.297096 0.163269 -1.37757
0.299773 0.163269 -1.37757
0.302449 0.163269 -1.37757
0.305126 0.163269 -1.37757
0.307802 0.163269 -1.37757
